# .PCD v0.7 - Point Cloud Data file format
VERSION 0.7
FIELDS x y z rgba
SIZE 4 4 4 4
TYPE F F F U
COUNT 1 1 1 1
WIDTH 1174
HEIGHT 1
VIEWPOINT 0 0 0 1 0 0 0
POINTS 1174
DATA ascii
-0.15147924 0.39743546 0.90680009 65793
-0.15652192 0.41076192 0.90800005 65793
-0.15108667 0.37902668 0.91700006 65793
-0.14820001 0.37786669 0.91000003 65793
-0.098686673 0.37116671 0.91700006 196865
-0.15451418 0.38545385 0.91544437 65793
-0.14993334 0.38393334 0.91000003 65793
-0.10212778 0.38485375 0.91542864 65795
-0.15542029 0.39484948 0.91420835 65793
-0.10284883 0.39503363 0.91309088 65793
-0.16156667 0.40872002 0.91700006 65793
-0.15826762 0.40425888 0.91346157 65794
-0.10271366 0.405635 0.91399997 65793
-0.16156667 0.41308665 0.91700006 65793
-0.1586 0.41166666 0.91000003 65793
-0.10241833 0.41273165 0.91525006 65793
-0.16183001 0.2548705 0.92600006 65793
-0.16181837 0.26507825 0.92557156 65793
-0.16138858 0.27515715 0.92600006 65793
-0.16156286 0.28163144 0.92700005 65793
-0.1561821 0.28467932 0.92341185 65793
-0.15540111 0.29442474 0.92393345 65797
-0.1528362 0.30478689 0.92440003 65793
-0.14982858 0.30754286 0.92000002 65793
-0.15202728 0.31506681 0.92537504 65793
-0.14982858 0.3119238 0.92000002 65793
-0.15064287 0.32154766 0.92500007 65793
-0.14824319 0.32729971 0.92466676 65793
-0.08493606 0.32485616 0.92492872 65793
-0.14626984 0.33561906 0.92333341 65793
-0.087114066 0.33504245 0.9250589 65793
-0.14659484 0.34339324 0.92485726 65793
-0.092346989 0.34580034 0.92233342 65793
-0.088032581 0.34419489 0.92620009 65793
-0.14596172 0.35563642 0.9266001 65793
-0.093164861 0.35465869 0.92290014 65794
-0.088679053 0.35162762 0.92650008 65793
-0.15096858 0.36638573 0.92700005 65793
-0.14730081 0.36528972 0.92614299 65794
-0.095365718 0.36552504 0.92400002 65793
-0.15155715 0.37286004 0.92700005 65793
-0.148 0.37088096 0.92500007 65793
-0.096741237 0.37514287 0.92300004 65794
-0.15612859 0.38593808 0.921 131329
-0.10076191 0.38990474 0.92000002 65799
-0.097711578 0.38469711 0.92433345 65794
-0.16121429 0.39290479 0.92500007 65793
-0.15859048 0.39165714 0.92000002 131329
-0.10138775 0.39540356 0.92114288 65793
-0.098939285 0.39443761 0.92550004 65793
-0.16372228 0.40631446 0.92109096 65794
-0.10084952 0.40427431 0.92080003 65793
-0.098874003 0.40607348 0.92530006 65793
-0.10080571 0.41286364 0.92040008 65793
-0.098966189 0.41460294 0.92575008 65793
-0.1918619 0.1641981 0.93700004 65793
-0.19007716 0.17936857 0.93700004 65795
-0.19007716 0.1838305 0.93700004 65795
-0.18472986 0.19517106 0.9336251 65793
-0.18429661 0.20503305 0.93446165 65793
-0.18332058 0.2150417 0.93399996 65793
-0.17656954 0.21612473 0.93092328 65793
-0.18224314 0.22417836 0.93509102 65793
-0.17489754 0.22524494 0.93253851 65793
-0.16828573 0.22851428 0.93000007 65793
-0.18115334 0.23380381 0.93700004 65793
-0.17527623 0.23488201 0.93419224 65793
-0.16784015 0.23535663 0.93092328 65793
-0.17408605 0.24449018 0.93577796 65793
-0.16742834 0.24407442 0.93146688 65793
-0.17199592 0.25476715 0.93629432 65793
-0.16678023 0.25512385 0.93338472 65793
-0.1710231 0.26422787 0.93649995 65793
-0.16647595 0.2647157 0.93350017 65793
-0.17044477 0.27039143 0.93700004 65793
-0.16575539 0.27479339 0.93376935 65793
-0.16404405 0.28585601 0.93464303 65793
-0.055210829 0.28440952 0.93614304 65793
-0.048188575 0.28199238 0.93700004 65793
-0.16263859 0.29383588 0.93400019 65793
-0.15854287 0.29848576 0.93000007 65793
-0.065442726 0.29523066 0.93381488 65793
-0.058589052 0.293244 0.9368335 65793
-0.16188096 0.30191049 0.93650001 65793
-0.15783298 0.30589554 0.93245465 65793
-0.071972989 0.30716053 0.93090928 65793
-0.066158101 0.30403826 0.93492329 65793
-0.15713948 0.3152782 0.93286693 65793
-0.080600001 0.31885713 0.93000007 65793
-0.074277602 0.31585023 0.93252003 65793
-0.066993751 0.31446874 0.9361431 65793
-0.15472834 0.32517362 0.93458343 65793
-0.14968573 0.32860002 0.93000007 65793
-0.080600008 0.3268286 0.93000007 65793
-0.074679494 0.32505059 0.93428123 65793
-0.068118416 0.322447 0.93700016 65793
-0.15342887 0.33545214 0.93428588 65793
-0.14968573 0.33568573 0.93000013 65793
-0.082458869 0.33545738 0.93100017 65793
-0.076302648 0.33478883 0.93559104 65793
-0.14850478 0.34572387 0.93000007 65793
-0.08346086 0.34568927 0.93284225 65793
-0.078628674 0.34495485 0.93700016 65793
-0.14749905 0.3556433 0.93057162 65793
-0.085382432 0.35480735 0.93395025 65793
-0.079421908 0.35070574 0.93700004 65793
-0.14850478 0.36461908 0.93000007 65795
-0.092157558 0.36596817 0.93171442 65793
-0.088167436 0.36544469 0.93513352 65793
-0.092415176 0.37564635 0.9324668 65793
-0.088823065 0.37401167 0.93577778 65793
-0.092998691 0.38521588 0.9322502 65793
-0.09494286 0.39573729 0.93257159 65793
-0.21279013 0.084312215 0.94636363 983825
-0.21326067 0.10494411 0.94381249 853005
-0.21365848 0.11481278 0.94531584 2758934
-0.20903429 0.11573143 0.94200003 196868
-0.21364143 0.12079 0.94650006 3811858
-0.20769271 0.1246108 0.94133341 3351305
-0.20551649 0.13444762 0.94114304 2563084
-0.20349523 0.14503813 0.94176483 1248267
-0.19963811 0.14592381 0.94000006 65793
-0.20205691 0.15544911 0.94445467 327942
-0.19795287 0.15630335 0.94050002 65793
-0.20193908 0.1637181 0.94800007 65796
-0.19644842 0.16523911 0.94293749 65796
-0.19569565 0.17471798 0.94357145 65793
-0.19447991 0.18519452 0.94152957 65794
-0.19413455 0.1945941 0.94273907 65794
-0.19288114 0.20426536 0.94094133 65797
-0.19354138 0.21527077 0.94242108 65793
-0.18889524 0.21467809 0.94000006 65793
-0.19520982 0.22462717 0.94488448 65793
-0.18765375 0.22575216 0.94125021 65793
-0.18641281 0.23505169 0.9427827 65793
-0.18517768 0.24495248 0.94384998 65793
-0.17894816 0.2461905 0.94000012 65795
0.00090285722 0.24196573 0.94800007 65793
-0.17740875 0.25536039 0.94080001 65793
-0.0085602384 0.25428838 0.94625008 65793
-0.17614016 0.26492047 0.94105899 65793
-0.034019049 0.26946667 0.94000006 65793
-0.024202665 0.26580679 0.94130021 65793
-0.01509376 0.26505166 0.94481474 65793
-0.0094682146 0.26422468 0.94687504 65793
-0.1692 0.27752382 0.94000006 65793
-0.041885 0.27707407 0.94075 65793
-0.03486881 0.27582037 0.94283336 65793
-0.025367584 0.27486947 0.94562054 65793
-0.016487274 0.27324522 0.94745457 65793
-0.16899566 0.28541309 0.9402858 65793
-0.052819051 0.28916192 0.94000006 65793
-0.044023968 0.28562662 0.94075871 65793
-0.035208136 0.28529802 0.94430757 65793
-0.026990715 0.28471613 0.94785005 65793
-0.053951479 0.29558 0.94105017 65793
-0.045277353 0.29556423 0.9445554 65793
-0.035185717 0.29503241 0.94734782 65796
-0.027587306 0.29302731 0.94800007 65793
-0.061515555 0.30788192 0.94066668 65793
-0.055368643 0.30484506 0.94321418 65793
-0.045513172 0.30499849 0.94767863 65793
-0.03566286 0.30065143 0.94800007 65793
-0.062201235 0.31545234 0.94176471 65793
-0.054995086 0.31502002 0.94667995 65793
-0.047712535 0.31398597 0.94800007 65793
-0.063656867 0.32533985 0.94265229 65793
-0.055722468 0.32432511 0.9478637 65793
-0.049657144 0.32051432 0.94800007 65793
-0.071789935 0.33617476 0.94057149 65793
-0.06475278 0.33458781 0.94439995 65793
-0.073448576 0.34480965 0.94311124 65793
0.11827429 0.34037715 0.94800007 65793
0.11827429 0.3566286 0.94800007 65793
0.11827429 0.36505529 0.94800013 65793
0.12316611 0.37466407 0.94340914 65793
0.12451608 0.38473171 0.94421065 65793
0.12343004 0.39485815 0.94465011 65793
0.12361351 0.40559992 0.94361115 65793
0.12350472 0.41488019 0.94455004 65793
0.12250774 0.42426881 0.94464707 65793
-0.23113653 -0.0039536511 0.95800012 659005
-0.23183858 0.0050085713 0.95650005 198444
-0.23318702 0.014617143 0.95576465 789828
-0.2345823 0.024373038 0.95526326 1183784
-0.22679737 0.025209481 0.95150012 2829888
-0.23163222 0.033680178 0.95581818 4211034
-0.22576191 0.035360005 0.95200002 4342605
-0.23010953 0.044566669 0.95500004 5000292
-0.22607677 0.045868382 0.95180005 4409950
-0.23059145 0.051953338 0.95700014 4672865
-0.22497591 0.055180907 0.95310533 4082267
-0.22487651 0.064691633 0.95389479 2830414
-0.22508955 0.074623093 0.9550001 4342860
-0.21925399 0.076904766 0.95000005 4016710
-0.22360604 0.083851442 0.95700014 3485244
-0.21776144 0.084384479 0.95270008 1246743
-0.22124574 0.091956191 0.95600003 4076060
-0.21908334 0.09154857 0.95650005 3810583
-0.22192667 0.10762826 0.9550001 4271121
-0.21821977 0.10684691 0.95075005 4206352
-0.22257985 0.11372358 0.9539091 4140322
-0.21877144 0.11490476 0.94999999 4664607
-0.20729315 0.15751372 0.95380002 1644046
0.015887531 0.22509269 0.9542858 65793
0.024842722 0.22402386 0.95600003 65793
0.034406852 0.22515221 0.95473081 65793
0.0075650006 0.23524836 0.9530834 65793
0.012759406 0.23261201 0.95687509 65793
0.036818247 0.23277064 0.95730776 65793
0.045013499 0.23526295 0.95527589 65793
-0.001357143 0.24745238 0.95000005 65793
0.0049154293 0.24572603 0.95490009 65793
0.046379369 0.24406193 0.95800012 65793
0.054461379 0.24501966 0.95589656 65793
-0.0036777025 0.25503337 0.95217651 65793
0.0029718732 0.25367197 0.95513344 65793
0.056557305 0.25380102 0.95783341 65793
-0.0042898417 0.26489067 0.95642871 65793
0.001824762 0.26185334 0.95800012 65793
0.058240321 0.26398224 0.95800012 65793
0.065181322 0.26482841 0.95535469 65793
-0.020809524 0.27957144 0.95000005 65793
-0.014777779 0.27715877 0.94999993 65793
-0.0064403182 0.27406481 0.95395243 854788
0.059304766 0.27097717 0.95800006 65793
0.066327833 0.27365372 0.9577859 65793
0.074787289 0.27514181 0.95435697 65793
-0.02277532 0.2861315 0.95024991 65793
-0.015166278 0.2843225 0.95213634 65794
-0.0091735451 0.28438821 0.9526667 1776142
0.068124451 0.28435877 0.95800012 65793
0.074526079 0.28501064 0.95725012 65793
0.085019626 0.28452292 0.95311117 65793
-0.031666666 0.29947621 0.95000005 65793
-0.024271335 0.29562593 0.95100003 65793
-0.014673824 0.29441434 0.95454299 657413
0.066603817 0.29196191 0.95800006 65793
0.075106405 0.29443842 0.95757163 65793
0.08472389 0.2942591 0.95656002 65793
0.094603546 0.29466039 0.95385718 65793
-0.041317463 0.30792063 0.95000005 65793
-0.035266198 0.30600175 0.95200008 65793
-0.025013793 0.30468509 0.95455563 65793
-0.01640291 0.30389252 0.95400006 853510
0.07655707 0.30150047 0.95800012 65793
0.085432045 0.30349112 0.95800012 65793
0.094601579 0.30503514 0.95763648 65793
0.10504554 0.30573478 0.9528079 65793
-0.043299828 0.31578434 0.95070583 65793
0.088500954 0.31112191 0.95800006 65793
0.095202357 0.31454119 0.95789301 65793
0.1052389 0.31490815 0.953394 65793
0.097847313 0.32394969 0.95780015 65793
0.10547471 0.32482845 0.954 65793
0.11281686 0.32494873 0.94999993 65793
0.10595091 0.33464921 0.95614302 65793
0.11320169 0.33449581 0.94999987 65793
0.10645747 0.34371829 0.95705014 65793
0.11438836 0.34492379 0.95153844 65793
0.10857334 0.35491621 0.95800012 65793
0.11435997 0.35460454 0.95330316 65793
0.10805198 0.36430076 0.95800018 65793
0.11378788 0.3645651 0.95333344 65793
0.1148795 0.3744888 0.95286679 65793
0.12033334 0.37909526 0.95000005 65793
0.11535782 0.38465294 0.95500004 65793
0.1209365 0.38633335 0.94999993 65793
0.11623814 0.39452949 0.95461911 65793
0.12033334 0.39538097 0.94999999 65793
0.11721721 0.40473476 0.95500004 65793
0.12033334 0.40533337 0.94999999 65793
0.11725876 0.41481894 0.95358825 65793
0.12033334 0.41483334 0.95000005 65793
0.11729131 0.42527449 0.95287502 65793
0.12033334 0.42252383 0.95000005 65793
-0.21318001 -0.071060002 0.96900004 395331
-0.20579715 -0.071060002 0.96900004 265531
-0.2242543 -0.062139049 0.96900004 397383
-0.21412301 -0.06492044 0.96824992 396093
-0.19823717 -0.063094288 0.96814287 395321
-0.23285307 -0.052316736 0.96857142 921929
-0.22535945 -0.055387102 0.96658045 659790
-0.23397346 -0.045137148 0.96719992 332100
-0.22477716 -0.045079134 0.96266669 529225
-0.18918572 -0.041528575 0.96900004 134195
-0.23438677 -0.034929235 0.96509981 397372
-0.22568196 -0.03397499 0.96142125 133667
-0.18724771 -0.034030311 0.96565217 132128
-0.23431428 -0.024809143 0.96479994 263462
-0.22460201 -0.024888022 0.96191686 461620
-0.17801717 -0.02162 0.96600002 131603
-0.24132715 -0.014304287 0.96899998 331077
-0.23477472 -0.014869942 0.96367997 331066
-0.22737131 -0.017912518 0.96100008 724810
-0.17624424 -0.015172973 0.96409529 65811
-0.15134858 -0.011997143 0.96900004 1119010
-0.24086572 -0.0073828576 0.96900004 198962
-0.23626083 -0.0048540141 0.96471429 330808
-0.17696208 -0.005023737 0.96584624 66866
-0.1521143 -0.0064552384 0.96800005 197646
-0.24196859 0.0054257144 0.96766663 791367
-0.23737842 0.0043834923 0.96400005 396861
-0.17285575 0.0047849631 0.96463144 1645099
-0.16622898 0.0059269387 0.96814281 655882
-0.14143191 0.0052252384 0.96850002 65793
-0.24364926 0.014985041 0.96582347 1183553
-0.23848751 0.013739154 0.96188897 1248325
-0.17217354 0.011518096 0.96333337 3623771
-0.1672491 0.014521589 0.9652667 3224879
-0.1540589 0.016467983 0.96507698 65793
-0.14519612 0.014105022 0.96436357 65793
-0.24411242 0.024987621 0.96415794 789299
-0.23887713 0.028372381 0.96100003 1638666
-0.24389902 0.034529295 0.96674985 1776440
-0.23688246 0.035281729 0.96218771 4079701
-0.2358229 0.04496178 0.96346676 4933986
-0.24012001 0.051519997 0.96600002 4798517
-0.23523548 0.055679005 0.96413624 4801102
-0.23413076 0.064706564 0.96494114 4404280
-0.23066144 0.076122858 0.96300006 4206903
-0.22618097 0.086535715 0.96149999 4142896
-0.22515373 0.092149146 0.9618001 4011042
0.024711428 0.22899258 0.96100008 65793
0.015739366 0.23543112 0.9625001 65793
0.025300687 0.23487298 0.96416676 65793
0.033121172 0.2364877 0.96135306 65793
0.008237143 0.24711427 0.96100003 65793
0.011239568 0.24450693 0.96154565 65793
0.028579049 0.24430667 0.96800005 65793
0.035164829 0.2445664 0.96337044 65793
0.04347381 0.24726683 0.96100014 65794
0.036324974 0.25454435 0.96730423 65793
0.044899769 0.25530475 0.96220016 65793
0.052168574 0.25641924 0.96100014 65793
0.038340528 0.26402107 0.96899998 65793
0.045077227 0.26490998 0.96441668 65793
0.053338189 0.26536122 0.96109122 65793
-0.0036609527 0.27640194 0.96100003 2301206
0.046309676 0.27354485 0.96807694 65793
0.054824475 0.27549317 0.96446139 65793
0.062996626 0.27670431 0.961182 65793
0.056981418 0.28460655 0.96849996 65793
0.064030938 0.28494611 0.96268445 65793
0.2017366 0.2851629 0.96900004 65793
0.065164298 0.29502621 0.96273088 65793
0.070473336 0.29745239 0.96100003 65793
0.19522397 0.29400516 0.96428585 65793
0.20026001 0.29162288 0.96900004 65793
0.065072864 0.30506563 0.96613628 65793
0.074077755 0.30629182 0.96152645 65793
0.082829051 0.30797759 0.96100003 65793
0.075296804 0.31446981 0.96467984 65793
0.084675342 0.31502888 0.96242315 65793
0.090608567 0.31850284 0.96100003 65793
0.084421672 0.3246792 0.96537912 65793
0.092988521 0.32548806 0.9611178 65793
0.095297024 0.33513355 0.96187115 65793
0.10159143 0.3386381 0.96100003 65793
0.095467828 0.34518018 0.96393335 65793
0.10211442 0.34582928 0.96100008 65793
0.10446572 0.35494578 0.96108723 65793
0.11074381 0.37890857 0.96100003 65793
-0.22052287 -0.10142191 0.97700006 723249
-0.21462986 -0.10297269 0.97700018 264766
-0.20718607 -0.10204223 0.97700012 198718
-0.23168859 -0.092117153 0.97700012 462146
-0.2244066 -0.093168996 0.97699994 461369
-0.21494001 -0.095240884 0.97699988 330548
-0.20602298 -0.094133198 0.97699994 396090
-0.23261908 -0.083510235 0.97700012 920900
-0.22548318 -0.084863834 0.97689271 789570
-0.21482332 -0.084668614 0.97472423 395313
-0.20422009 -0.084474772 0.97470039 132909
-0.19781923 -0.083184578 0.97700006 197425
-0.24099335 -0.071646668 0.97700006 1118262
-0.2349097 -0.074894845 0.97631812 527931
-0.22538471 -0.075129107 0.97388023 396350
-0.21510579 -0.075298995 0.97264302 395326
-0.20448843 -0.075714007 0.97308719 265018
-0.19535163 -0.074742675 0.97534609 329779
-0.18764602 -0.074127935 0.97700012 263986
-0.24187388 -0.0639994 0.97645468 855881
-0.23469263 -0.065060399 0.97348297 330298
-0.22502246 -0.066819936 0.97231585 198714
-0.21865372 -0.067947432 0.97200006 197426
-0.20088001 -0.069428571 0.97200006 331316
-0.19372573 -0.065429315 0.97327614 263733
-0.18664695 -0.064826824 0.97605264 131865
-0.24325183 -0.054819051 0.97560018 856656
-0.23646009 -0.055242296 0.97213346 593731
-0.19175303 -0.058360007 0.97266674 526384
-0.18579632 -0.054417387 0.97455567 131857
-0.14127634 -0.054519597 0.97500008 1910067
-0.24445765 -0.045174047 0.97550005 1249104
-0.23976003 -0.045360003 0.97200006 593483
-0.18514587 -0.045375619 0.97366679 66323
-0.17958191 -0.040940955 0.97700006 66058
-0.14346154 -0.044784572 0.97560018 3027775
-0.24454418 -0.034615953 0.97445011 1118790
-0.18305308 -0.035933618 0.97335297 66056
-0.17958193 -0.036288571 0.97700012 65794
-0.15213287 -0.03210143 0.97700006 1251889
-0.14742331 -0.035875898 0.97353858 2764863
-0.24488273 -0.025044998 0.97395021 658747
-0.18076192 -0.026883811 0.97333336 262930
-0.17661469 -0.023959812 0.97500008 65806
-0.15376106 -0.025361158 0.97592866 329240
-0.14904 -0.028697144 0.97200006 395054
-0.24659605 -0.014647238 0.97340012 461630
-0.17312264 -0.012765862 0.97369242 65805
-0.16975428 -0.012986667 0.97400004 721682
-0.15421265 -0.014731023 0.9754287 789272
-0.24578314 -0.004550044 0.97318202 395051
-0.17294848 -0.0047559659 0.97541183 66071
-0.16567922 -0.0027900003 0.97550011 196874
-0.1563309 -0.0067621777 0.97457153 459530
-0.14718857 -0.00092571432 0.97200006 65793
-0.17125715 0.00092571432 0.97200006 197401
-0.16638049 0.0015455557 0.97416675 65804
-0.15166762 0.0083742859 0.97700006 65793
-0.14617138 0.0047511314 0.97368759 65793
-0.16423666 0.015233811 0.97350007 2760473
-0.1551725 0.012310358 0.97562504 65793
-0.14852509 0.010806985 0.97266674 65793
-0.16511619 0.021335239 0.97400004 1711933
0.22160192 0.24575315 0.97520012 7370860
0.21406311 0.25483271 0.97300011 723982
0.22145334 0.25402001 0.97700006 6913393
0.2071465 0.26623535 0.97218186 66049
0.21414477 0.26494017 0.97472 1118497
0.22114319 0.2654959 0.97700012 6583666
0.20688368 0.27472869 0.97276932 65793
0.21532981 0.27415907 0.97533339 2239287
0.22052287 0.27076858 0.97700006 6387579
0.20653868 0.28512383 0.97306675 65793
0.21284644 0.28263217 0.97700012 856077
0.19902858 0.29900575 0.97200006 66049
0.20516543 0.29480076 0.97395468 65793
0.2112181 0.29682192 0.97700006 196865
0.19724838 0.30593655 0.97480011 65793
0.20349863 0.30333549 0.97666675 65793
0.19633757 0.31345692 0.97600007 65793
0.20005238 0.31264001 0.97700006 65793
0.19695953 0.32052144 0.97550005 66049
-0.21453716 -0.14161333 0.98799998 593469
-0.1423739 -0.14387944 0.9874 460330
-0.2327289 -0.13141969 0.98800004 595788
-0.22379406 -0.13314956 0.98658806 922445
-0.21505937 -0.13429794 0.98608017 461879
-0.20785947 -0.13382654 0.98757142 265017
-0.23563948 -0.12491211 0.98737526 920638
-0.22495823 -0.12462536 0.98489666 527161
-0.21475434 -0.12472736 0.98468018 394802
-0.20475642 -0.12492373 0.98623371 198704
-0.19728635 -0.12263747 0.98800004 133427
-0.15181208 -0.12238794 0.98600006 65805
-0.1470862 -0.12552905 0.98366666 133160
-0.24279442 -0.11353783 0.98757148 659788
-0.23561729 -0.11546236 0.98564017 723777
-0.22524258 -0.11537915 0.98314816 263733
-0.21511503 -0.114944 0.9811998 263976
-0.20507783 -0.11522701 0.98412502 264496
-0.19603261 -0.11452413 0.98786384 198971
-0.18913144 -0.11009143 0.98800004 133678
-0.14446917 -0.1165125 0.98662502 66333
-0.13819969 -0.11261684 0.98266667 132636
-0.24353826 -0.10454076 0.98610526 461891
-0.23539501 -0.10514132 0.98417246 396601
-0.22545557 -0.10579398 0.98158312 396359
-0.21588719 -0.10747694 0.9799999 265027
-0.20489517 -0.10617105 0.9816798 199483
-0.1956217 -0.10443011 0.98554862 329776
-0.18776281 -0.10359031 0.98800004 132140
-0.1405783 -0.10444572 0.98800004 262939
-0.13653281 -0.10537239 0.98285723 197669
-0.24489821 -0.094649024 0.98652196 855107
-0.23529501 -0.095257767 0.98154992 462144
-0.22624002 -0.098373346 0.97999996 527162
-0.20287271 -0.096472733 0.9799999 264769
-0.19476238 -0.094574995 0.98320007 198973
-0.18589365 -0.094761059 0.98700005 197662
-0.14300528 -0.094684087 0.98609096 263203
-0.13805887 -0.09490148 0.98127264 198439
-0.23687586 -0.085425429 0.98069227 527159
-0.19406965 -0.085652955 0.98140895 197945
-0.18640959 -0.084985852 0.98450005 66850
-0.14285707 -0.084776752 0.98358321 328229
-0.13813333 -0.087733328 0.98000002 66327
-0.23862223 -0.078711115 0.98000002 657976
-0.19195557 -0.078711115 0.98000002 263712
-0.18361039 -0.07579723 0.9825651 66074
-0.1793173 -0.073672228 0.98749995 65797
-0.14475176 -0.075178102 0.98266673 131861
-0.24682215 -0.065064915 0.98138463 1315669
-0.18229564 -0.0651289 0.98159999 65798
-0.17690401 -0.064675748 0.98721051 65803
-0.15269008 -0.063982628 0.98558331 131602
-0.14799647 -0.064723 0.98085719 132117
-0.24859534 -0.055789169 0.98037499 988746
-0.18066667 -0.055866674 0.98000008 65796
-0.17776 -0.05602143 0.98583335 65797
-0.15220429 -0.059190005 0.98650002 65793
-0.14694816 -0.055073392 0.98431242 1054233
-0.18013333 -0.046666667 0.98000002 65806
-0.17511553 -0.044652164 0.98535502 65804
-0.16795999 -0.044695243 0.98800004 1180173
-0.1539266 -0.042677622 0.98635709 1514012
-0.14737177 -0.046687275 0.98218173 2566706
-0.18013333 -0.031733334 0.98000002 65796
-0.17588846 -0.03475396 0.98626089 65795
-0.16176803 -0.032892115 0.98671436 459783
-0.15589561 -0.035204288 0.98237491 921636
-0.18013333 -0.028933333 0.98000002 131594
-0.17491648 -0.026253065 0.98442852 65799
-0.16205502 -0.025335018 0.98530763 655876
-0.15617779 -0.02457778 0.98000002 263179
-0.15757959 -0.015665926 0.98033333 460042
-0.1708 -0.0055999998 0.98000002 65800
-0.16550867 -0.0057818494 0.98247045 984842
-0.15752509 -0.004046984 0.98266667 918278
-0.15331213 0.0048522078 0.98318172 65793
-0.15711111 0.010888889 0.98000002 65797
0.21933334 0.25479999 0.98000002 2446911
0.22296762 0.25567546 0.98119992 6846578
0.21933334 0.26133335 0.98000002 3303247
0.22283106 0.26130611 0.9806 6715766
0.21551503 0.28551179 0.98092306 1053739
0.21511255 0.29529545 0.98245001 1057319
0.20652096 0.30744323 0.98120004 65794
0.21443242 0.30519751 0.98436373 1778722
0.1988 0.31826666 0.98000002 65793
-0.15074715 -0.19341287 0.99550003 1381458
-0.15667525 -0.18394955 0.9946 922177
-0.23320307 -0.17451866 0.99630773 528198
-0.22453159 -0.17398083 0.99357134 526912
-0.21574485 -0.17432709 0.99600011 264759
-0.24022953 -0.16046953 0.99700004 595012
-0.23524868 -0.16563484 0.99542856 463172
-0.22484994 -0.16533221 0.9919998 460859
-0.21499017 -0.16548455 0.99544436 264240
-0.2073127 -0.16300158 0.99699998 330299
-0.23457536 -0.1547121 0.99284601 659005
-0.22489733 -0.15498771 0.99279994 329264
-0.21486336 -0.15475218 0.9929285 460855
-0.20518981 -0.15445523 0.9958213 395835
-0.19845048 -0.15097429 0.99700004 396350
-0.23473278 -0.14453802 0.99239272 396077
-0.22462681 -0.14482935 0.99183983 330042
-0.21444346 -0.14509831 0.99100006 527157
-0.20441192 -0.14479743 0.99369991 461609
-0.19702618 -0.14480239 0.99699998 461375
-0.14554477 -0.14392681 0.99142867 262948
-0.23532359 -0.13637164 0.99271429 332084
-0.22651431 -0.1374816 0.99100012 987215
-0.20346387 -0.1356841 0.99193764 199726
-0.19600384 -0.13510948 0.99566662 330291
-0.15204626 -0.13352476 0.99433339 131858
-0.1481781 -0.13685238 0.99100006 197153
-0.2368962 -0.12930192 0.99100006 855107
-0.19416775 -0.1255922 0.99413037 263469
-0.18753096 -0.12248857 0.9970001 132128
-0.15296191 -0.12758042 0.99228585 197649
-0.19197357 -0.11594191 0.99175006 198965
-0.18619888 -0.11429358 0.99465215 132383
-0.14465348 -0.11358709 0.99271441 131859
-0.19159333 -0.1085381 0.99100006 132927
-0.18354066 -0.10554577 0.99368417 66075
-0.14512199 -0.10410786 0.9937501 197400
-0.18147036 -0.095937885 0.99300003 65809
-0.15170372 -0.094887152 0.99430007 131605
-0.14738901 -0.09556783 0.99133343 197419
-0.18168706 -0.085722312 0.99275011 65803
-0.15136933 -0.086007617 0.99460012 66053
-0.14746793 -0.085344665 0.99130011 131605
-0.14796133 -0.077103816 0.99460012 65805
-0.1572044 -0.065958932 0.9928751 131345
-0.2112 -0.32159999 1.008 396861
-0.20480001 -0.32224 1.008 461893
-0.19872001 -0.32159999 1.008 396856
-0.2112 -0.31488001 1.0080001 266041
-0.20448856 -0.3154029 1.0073078 331074
-0.1952018 -0.31318277 1.0075791 462659
-0.18911999 -0.31008002 1.008 200260
-0.21109334 -0.30474669 1.008 724009
-0.20451522 -0.30562359 1.0065219 462394
-0.19499831 -0.30446938 1.005174 461884
-0.18520162 -0.3041935 1.007579 198966
-0.17824 -0.30176002 1.008 197670
-0.20521992 -0.29535994 1.0069093 462398
-0.19490705 -0.29522786 1.0032003 395057
-0.18531916 -0.29507443 1.0071071 131615
-0.17663999 -0.2976 1.008 131599
-0.20500529 -0.2849746 1.0065241 527416
-0.19486858 -0.28561622 1.0030003 264492
-0.18624246 -0.28570953 1.0074446 198446
-0.21056001 -0.27487999 1.008 461616
-0.20499551 -0.27491954 1.0058001 330804
-0.19439074 -0.27537104 1.0017813 264498
-0.18601309 -0.27494505 1.0073 264509
-0.21204707 -0.26467764 1.0080001 198955
-0.20489666 -0.26463863 1.0066401 265006
-0.19473386 -0.26539448 1.0026252 263976
-0.1849675 -0.26515254 1.0074286 263979
-0.17952 -0.26304001 1.008 330304
-0.1326462 -0.26465032 1.0068333 131864
-0.21362287 -0.25376001 1.008 593977
-0.20404339 -0.25454515 1.006889 395569
-0.19422366 -0.25449833 1.0046004 263735
-0.18511029 -0.25466031 1.0066924 460083
-0.17952 -0.25440001 1.008 263485
-0.14256001 -0.25104001 1.008 459537
-0.13399664 -0.2537559 1.0066154 131604
-0.22176 -0.24416 1.0080001 657979
-0.21548127 -0.24484056 1.0071305 855613
-0.20572613 -0.24466428 1.004696 724802
-0.19455734 -0.24429141 1.0024785 394792
-0.18512028 -0.24461761 1.0063463 328749
-0.17808001 -0.24463999 1.0080001 198956
-0.15230095 -0.24331568 1.0069093 132398
-0.14446656 -0.24492256 1.0045557 525871
-0.21477136 -0.23533824 1.0078094 264759
-0.20516337 -0.23468167 1.0036669 264497
-0.19465388 -0.23473258 1.0019168 263974
-0.18511598 -0.23499434 1.00712 132920
-0.17919999 -0.23584001 1.008 198455
-0.15250625 -0.23499258 1.0071112 197926
-0.14586253 -0.23502506 1.0015653 397366
-0.21317647 -0.22672941 1.0080001 66333
-0.20443474 -0.22526413 1.0061307 132396
-0.19435893 -0.22443549 1.0031114 197929
-0.1848426 -0.22507314 1.0056401 132662
-0.17952 -0.2256 1.008 198710
-0.15298624 -0.22443131 1.0046668 132653
-0.14757247 -0.22604227 1.0007501 68654
-0.20357616 -0.2161486 1.0078001 263205
-0.19468151 -0.21481666 1.0069668 197917
-0.18516158 -0.21490352 1.0073667 263218
-0.17952 -0.21696 1.008 460104
-0.15385546 -0.21453694 1.0053079 131889
-0.14857143 -0.21523812 1 329518
-0.20430544 -0.20395637 1.008 131614
-0.19496 -0.20463997 1.0079999 197412
-0.18528001 -0.20447998 1.0079999 131615
-0.17952 -0.20544001 1.008 132145
-0.15475117 -0.2046269 1.0050555 132388
-0.14888889 -0.20603177 1 199466
-0.19104001 -0.19872001 1.008 65798
-0.18720001 -0.19872001 1.008 65799
-0.16150267 -0.1940745 1.0058 66340
-0.155821 -0.19512546 1.0022942 724031
-0.22533119 -0.18497719 1.0014211 659787
-0.21539342 -0.18495409 1.0016958 331592
-0.1625281 -0.18642777 1.0038334 132652
-0.15777779 -0.18730161 1 726855
-0.23676191 -0.17752382 1 528716
-0.22571431 -0.17999999 1 724052
-0.21296702 -0.17736264 1 460846
-0.20445363 -0.17483371 1.0023794 330294
-0.20349208 -0.16603178 1 198719
-0.20095238 -0.15714285 1 330811
-0.19238044 -0.14561775 1.0008823 199477
-0.15386197 -0.14561589 1.0034378 65804
-0.14963596 -0.14487262 1.0007501 197145
-0.15602706 -0.1359718 1.0026001 66069
-0.14885108 -0.11449894 1.001875 66324
-0.20049429 -0.37096286 1.0170001 855622
-0.19323 -0.37144715 1.0170001 921663
-0.18422233 -0.37503088 1.0170001 263220
-0.20434937 -0.36430493 1.0158335 199980
-0.19516157 -0.36520585 1.0144501 397629
-0.17515573 -0.36231285 1.0161002 264237
-0.21285801 -0.35365716 1.0165715 987719
-0.20498168 -0.35503888 1.0138236 659511
-0.21504843 -0.3451328 1.0157648 660296
-0.20497976 -0.34559101 1.0112499 330566
-0.19562051 -0.34550524 1.0109999 330288
-0.16603181 -0.34558323 1.0135909 131602
-0.21507375 -0.33542296 1.0136666 725564
-0.20514926 -0.33517325 1.0112998 461107
-0.19546001 -0.33507431 1.0109999 197915
-0.18473105 -0.33493674 1.0109999 197415
-0.16614231 -0.33519 1.0134284 132657
-0.22167201 -0.32427892 1.0164002 790591
-0.21548299 -0.32535484 1.012 659000
-0.20495106 -0.32640859 1.0109999 592701
-0.19537207 -0.3246842 1.011375 330031
-0.18553345 -0.32412136 1.0111248 197932
-0.17323537 -0.32400084 1.0111666 133420
-0.1657276 -0.32470855 1.0125713 197924
-0.22180288 -0.31866002 1.0170001 398656
-0.21692103 -0.31545249 1.0129285 593725
-0.19314916 -0.31793547 1.011 526900
-0.18481585 -0.31518182 1.0116205 329011
-0.17433827 -0.31496686 1.0113598 132889
-0.16625112 -0.31538051 1.0139999 66844
-0.1323902 -0.31480128 1.0157144 66331
-0.22180288 -0.30703717 1.0170001 921146
-0.21672571 -0.30483252 1.0124999 724517
-0.18236516 -0.30869201 1.011 265522
-0.17393218 -0.30582988 1.0115453 133169
-0.1659846 -0.30526707 1.0135714 198186
-0.14095049 -0.30157524 1.0160002 131362
-0.13406713 -0.30530366 1.0151668 131865
-0.22180288 -0.2992886 1.0170001 330807
-0.21517067 -0.29532751 1.0127777 592685
-0.18005429 -0.29367143 1.011 65822
-0.17432222 -0.29447851 1.0132173 131600
-0.16692893 -0.2964896 1.0152353 66337
-0.1415962 -0.29705715 1.0160002 327976
-0.13488753 -0.29734778 1.0109999 197398
-0.21508968 -0.28521958 1.0130769 527679
-0.18202972 -0.28419542 1.012 395057
-0.17746527 -0.28604463 1.0165386 197672
-0.13768856 -0.28211716 1.011 131589
-0.21643205 -0.2752797 1.013 462393
-0.18097681 -0.27544397 1.012125 265518
-0.17746906 -0.27499098 1.0155001 200495
-0.14141142 -0.27023143 1.0170001 197136
-0.1371343 -0.27136287 1.0140001 66071
-0.22244003 -0.26476002 1.0146 264737
-0.21760571 -0.26478574 1.011 330027
-0.18005429 -0.26863715 1.011 200758
-0.17588364 -0.26458207 1.0135 329528
-0.14306144 -0.26400349 1.0159287 66061
-0.13618727 -0.26405382 1.0115454 66070
-0.21779828 -0.25708291 1.011 396344
-0.17476849 -0.25491858 1.0138845 133423
-0.16950002 -0.25086001 1.0170001 198177
-0.15109715 -0.25473431 1.0170001 197919
-0.14505246 -0.25578722 1.0125881 262931
-0.13792929 -0.25660145 1.011 131609
-0.17431498 -0.24553122 1.0146924 198958
-0.15417358 -0.24763501 1.0117501 131862
-0.14924286 -0.24937999 1.011 789027
-0.17554854 -0.23457171 1.0119998 198710
-0.15502001 -0.23590001 1.011 66334
-0.17577216 -0.22493638 1.0132104 263735
-0.15797858 -0.22329383 1.0135001 131868
-0.18005429 -0.21182859 1.011 198458
-0.15865797 -0.21599758 1.0131429 131611
-0.18005429 -0.20444667 1.011 131883
-0.15887143 -0.20797715 1.011 67355
0.1848903 -0.031944003 1.0164002 6055532
0.18500431 -0.027448285 1.0149001 5464961
0.20956001 -0.02028 1.0140001 65793
0.21143144 -0.023997147 1.0145 66324
0.20684892 -0.014693335 1.0133334 197644
0.19803651 -0.0029000002 1.0143334 526611
0.20166208 -0.0056555108 1.0131431 593932
0.19800048 0.0022490479 1.0125 2177353
0.20123716 0.00096285716 1.011 2636079
-0.22181143 -0.38304001 1.026 397120
-0.21609432 -0.3832128 1.0242001 660539
-0.20588705 -0.38293451 1.0223076 529208
-0.19591883 -0.38291216 1.0217501 329506
-0.18878099 -0.38241911 1.0200002 263464
-0.22181143 -0.37717715 1.026 394564
-0.21507564 -0.37477976 1.0225385 462398
-0.20510334 -0.37498307 1.0202503 593989
-0.19542047 -0.37636662 1.0203161 461372
-0.18578571 -0.37545717 1.0200002 262950
-0.17652246 -0.37205717 1.0200003 131620
-0.21527249 -0.3648892 1.0223752 527659
-0.20885716 -0.36817148 1.0200001 592693
-0.17404763 -0.36703813 1.0200002 131607
-0.16345564 -0.36458713 1.0205296 65806
-0.15437761 -0.36250597 1.0204618 65793
-0.14470373 -0.3644366 1.0208752 65800
-0.1389143 -0.36331433 1.0200001 66072
-0.22370519 -0.35404497 1.024091 791883
-0.21562989 -0.35623914 1.0209233 724533
-0.1618612 -0.35532027 1.0207503 65808
-0.15478218 -0.35532364 1.0221601 65794
-0.14518002 -0.35516328 1.0240347 65794
-0.13795286 -0.353338 1.0215 66070
-0.22516172 -0.34469971 1.0230002 596032
-0.21857144 -0.34777147 1.0200001 727626
-0.16137597 -0.34413549 1.0207502 65803
-0.15492488 -0.34492904 1.0231004 65797
-0.14578716 -0.34606871 1.0258334 65798
-0.13708395 -0.34525752 1.0226252 131863
-0.22575678 -0.33551967 1.023375 791615
-0.16151714 -0.33439586 1.0223334 66074
-0.15564127 -0.33524701 1.0249093 65797
-0.13824284 -0.33504477 1.0230001 66065
-0.22456503 -0.32663789 1.02075 1118782
-0.16164702 -0.32461843 1.0219091 65813
-0.15837021 -0.32636777 1.0255715 65794
-0.1372505 -0.32378128 1.0236669 65807
-0.22236654 -0.31570125 1.0208572 529730
-0.16200255 -0.31567368 1.0226666 66328
-0.15830369 -0.31451836 1.0251429 65800
-0.14316629 -0.31406626 1.0254 66052
-0.13793556 -0.31600478 1.0223333 65806
-0.16138312 -0.30587664 1.0213639 131625
-0.1583668 -0.3055082 1.024875 65803
-0.14317621 -0.30619618 1.025 197651
-0.13826668 -0.30923814 1.0200002 66064
-0.17194289 -0.29094291 1.0200001 197157
-0.16397288 -0.29451129 1.0228333 66341
-0.14435466 -0.29455897 1.0241251 65809
-0.17264639 -0.28439653 1.0203335 197407
-0.16627558 -0.28492001 1.0230001 66072
-0.1426841 -0.28327268 1.0251429 65794
-0.13904142 -0.28198144 1.0245 66055
-0.17284179 -0.27553445 1.0215001 133677
-0.14513414 -0.275318 1.0235001 66056
-0.13840286 -0.27648097 1.0210001 66063
-0.14746894 -0.26699895 1.020375 66062
-0.17000002 -0.25645715 1.0200001 133167
-0.15201621 -0.25768098 1.0210001 197664
0.22871256 -0.092384569 1.0254 69168
0.22619914 -0.084473722 1.0242001 66315
0.21931714 -0.074518099 1.0250001 66063
0.21697874 -0.065023385 1.0228126 67083
0.1982362 -0.056129526 1.0220001 329241
0.20454444 -0.053006668 1.0243334 131357
0.21401104 -0.055718835 1.0231367 264488
0.22051431 -0.058285717 1.0200001 330024
0.19784763 -0.045009531 1.0200002 4201503
0.20540462 -0.045617808 1.0225385 131602
0.2111886 -0.046434287 1.0200001 133928
0.2078664 -0.03620572 1.0232308 65803
0.21080002 -0.033028577 1.0200001 66328
0.28408799 -0.034069717 1.026 5205376
0.20873922 -0.0235049 1.0221429 66062
0.26908574 -0.022342859 1.0200001 793160
0.27664539 -0.024116507 1.022 464467
0.28360718 -0.025040004 1.0245 5072253
0.19806999 -0.01171 1.0245 65796
0.20426261 -0.014090129 1.0235455 66056
0.27442572 -0.017861906 1.023 400459
0.19817144 -0.0077714296 1.0200001 65801
0.20108573 -0.0087428587 1.0200001 66056
-0.22705999 -0.38432366 1.0320771 2891340
-0.15008572 -0.3403905 1.0300001 262406
-0.1458704 -0.34308898 1.0302501 65796
-0.15175985 -0.33334526 1.0325 65801
-0.14553691 -0.32514605 1.033375 65793
-0.13831429 -0.32861906 1.0300001 65809
-0.14691111 -0.31596404 1.0306668 66050
0.17448065 -0.20180413 1.0370002 857432
0.17652223 -0.19470197 1.0336924 662600
0.18440041 -0.19395152 1.0372502 727881
0.19042666 -0.19042666 1.036 397614
0.25727621 -0.16327144 1.039 793938
0.24704319 -0.15332085 1.038625 332588
0.255108 -0.15364794 1.0384704 530234
0.26143795 -0.15429287 1.0385001 530760
0.18869467 -0.14344172 1.033 597849
0.19446875 -0.14349742 1.0340589 792378
0.23659505 -0.14375401 1.0387692 201014
0.24507773 -0.14514786 1.03675 332353
0.26471645 -0.14507604 1.0377368 465745
0.2705358 -0.14427258 1.039 728657
0.19440548 -0.13788073 1.03225 792377
0.23638906 -0.13556688 1.0370433 198448
0.27127087 -0.13499932 1.039 1122391
0.22660094 -0.12270096 1.039 265260
0.23512293 -0.12507199 1.0357857 199989
0.27427265 -0.12492079 1.0355 794451
0.28053004 -0.12517476 1.039 925777
0.22643557 -0.1150013 1.0373499 199202
0.23461083 -0.115291 1.0326668 133937
0.2825529 -0.11495072 1.03825 730471
0.22552377 -0.10537745 1.03408 67357
0.23346673 -0.10496191 1.0300001 133663
0.27509764 -0.10535964 1.0328333 926040
0.28187859 -0.1074754 1.0385001 729179
0.21868476 -0.090046667 1.039 131864
0.22435191 -0.095451728 1.0332308 67870
0.23281273 -0.098422229 1.0300002 266029
0.2750487 -0.095572941 1.033 1453147
0.21743482 -0.084075384 1.0366923 66058
0.22163425 -0.086594686 1.03125 131602
0.27816364 -0.087749146 1.0306001 1715806
0.20675115 -0.071553066 1.0372858 65798
0.21514179 -0.07492099 1.0345598 66054
0.28679618 -0.073495783 1.0368572 5198672
0.29190952 -0.070256196 1.039 8752282
0.19913334 -0.063761912 1.0300001 199198
0.20559585 -0.064838052 1.0339476 66320
0.21293782 -0.065975383 1.0317143 67356
0.28801695 -0.067800194 1.0378001 8425876
0.29190952 -0.068277143 1.039 8751777
0.19913334 -0.059838101 1.0300001 263961
0.2054718 -0.058178023 1.03 66063
0.21155874 -0.058530167 1.0300001 67615
0.20236717 -0.04093159 1.0315001 131329
0.20530948 -0.034164704 1.0328001 65794
0.28349525 -0.035314292 1.0300001 3098223
0.20709299 -0.025027327 1.0320771 66054
0.28704417 -0.021927938 1.0310001 6982790
0.29022381 -0.02066 1.033 9277836
0.27793297 -0.015515049 1.0312002 794451
0.28535649 -0.015626367 1.0360001 3296363
0.29130873 -0.015329932 1.0338572 9210754
0.28834724 -0.0065308572 1.039 5863808
0.29190952 -0.004947619 1.039 9144466
0.17400113 -0.24601494 1.043 859735
0.17766097 -0.2125943 1.0480001 530747
0.18065526 -0.21059811 1.0480001 1512027
0.17764327 -0.20661634 1.0437143 857171
0.18329036 -0.20414282 1.0463848 989016
0.18706381 -0.19649145 1.0420001 858438
0.19108573 -0.19805239 1.0450001 988466
0.24652952 -0.18165337 1.0480002 462918
0.25537261 -0.18301982 1.0459547 661839
0.26409298 -0.18436727 1.0464003 729179
0.24570477 -0.17391784 1.0458078 397115
0.25520205 -0.17450446 1.0437728 463425
0.26473692 -0.17466536 1.0450001 597579
0.27447623 -0.17067431 1.0480001 403552
0.23596378 -0.1626053 1.0466002 332089
0.24498762 -0.1651984 1.0437727 462922
0.25507635 -0.16556157 1.0421427 661324
0.26474053 -0.16540343 1.0421304 1056332
0.27473035 -0.1645719 1.0451667 665438
0.28146288 -0.16069335 1.0480001 3559054
0.1935143 -0.15183429 1.0420001 467017
0.22799349 -0.15413445 1.0480002 132628
0.23484762 -0.154981 1.0455359 198690
0.24423596 -0.15657566 1.0419999 264760
0.25429764 -0.15902905 1.0419999 332868
0.26606837 -0.15635513 1.0419999 531535
0.27560145 -0.15474902 1.0443751 730710
0.28198415 -0.15359843 1.0450001 3107466
0.19351432 -0.14984953 1.0420001 335183
0.2279519 -0.14471266 1.0458573 68380
0.23375085 -0.14678219 1.0419999 201263
0.24511811 -0.14984953 1.0420001 857149
0.26893526 -0.14984953 1.0420001 794194
0.27612489 -0.14509161 1.0431052 1058652
0.28480509 -0.14401248 1.0471178 3164030
0.29044572 -0.14073145 1.0480001 9870756
0.22658941 -0.13436736 1.0428572 67090
0.23172095 -0.13446763 1.0419999 198162
0.27645442 -0.13568226 1.0427499 992350
0.28520417 -0.13414171 1.0454092 2769270
0.29044574 -0.13673906 1.0480001 9413784
0.21994764 -0.12042382 1.0450001 67866
0.22424358 -0.12519205 1.0437647 67101
0.23122478 -0.12801716 1.0420001 263703
0.27885905 -0.12801716 1.0420001 1057109
0.28613651 -0.12426815 1.0419999 3164541
0.29076764 -0.12404761 1.0420001 8429472
0.21781425 -0.11372306 1.0456002 66834
0.22195905 -0.115023 1.0424286 133149
0.287671 -0.11454391 1.0425454 4084858
0.2911025 -0.11425411 1.0432001 7904158
0.21683362 -0.10444086 1.0444001 65799
0.22130096 -0.10420001 1.0420001 66071
0.28583327 -0.10400521 1.0435882 2108006
0.29137298 -0.10495353 1.0456002 6263700
0.22130096 -0.098245718 1.0420001 66061
0.28246099 -0.096815251 1.0480001 1650788
0.28779048 -0.080382861 1.0420001 331299
0.29260004 -0.080614291 1.0450001 6917510
0.28878286 -0.074924767 1.0420001 5071967
0.2921418 -0.075910762 1.0428572 8295053
0.20627405 -0.27220109 1.0580001 199720
0.21297406 -0.27343121 1.0580002 331059
0.17834859 -0.26701906 1.0580001 857186
0.18036382 -0.2690343 1.0580001 592444
0.20670588 -0.26471597 1.0580003 133417
0.21427242 -0.26482865 1.0580004 266554
0.22134034 -0.26164514 1.0580001 332097
0.17784287 -0.25219527 1.0550001 794725
0.18036382 -0.25089717 1.0580001 1511486
0.20656192 -0.25492764 1.0580003 66849
0.21404712 -0.25550345 1.0580004 134445
0.22308688 -0.25633833 1.0580002 68126
0.24182859 -0.2529124 1.0580001 266298
0.18036382 -0.24686669 1.0580001 1445680
0.20595734 -0.24686669 1.0580002 66324
0.21139851 -0.24726973 1.0580001 66061
0.22872953 -0.24082096 1.0580001 199990
0.23565693 -0.24346595 1.0580003 201017
0.24283619 -0.24485147 1.0580003 398137
0.22765706 -0.23470981 1.0577002 265260
0.23451057 -0.23451126 1.0568002 266286
0.24243318 -0.23376766 1.0580002 530002
0.18288097 -0.22144288 1.0575715 465487
0.22682522 -0.22434624 1.0570772 199213
0.23459159 -0.22451997 1.0571603 68652
0.24171662 -0.22514687 1.0580002 199227
0.17859334 -0.21672145 1.0535001 334667
0.18511431 -0.21526286 1.0552002 923214
0.19094382 -0.21260764 1.0580001 1052726
0.22473505 -0.21449013 1.0573481 133405
0.23343465 -0.21508032 1.0575004 133144
0.18812644 -0.20668668 1.0535001 727626
0.21865335 -0.20555431 1.0580001 131872
0.22467358 -0.20492584 1.0578804 199716
0.23487124 -0.20425878 1.0580004 200505
0.24477299 -0.20481923 1.0572108 267325
0.25445008 -0.20518303 1.056895 464720
0.26477993 -0.20297928 1.0580002 663121
0.27104953 -0.20051621 1.0580001 927064
0.2250091 -0.19617569 1.0580003 133674
0.23443854 -0.19450033 1.0572504 66583
0.24444611 -0.19551948 1.0545201 198428
0.25457004 -0.19566128 1.0539618 397124
0.26416078 -0.19582047 1.0539093 597329
0.2737571 -0.19414714 1.0570772 926552
0.28112575 -0.19245525 1.0580001 268397
0.23590717 -0.18495253 1.0568752 199985
0.24397062 -0.18630323 1.0531251 594499
0.25462696 -0.18878751 1.052 727367
0.26817656 -0.18602034 1.052 795218
0.27485937 -0.18547352 1.0538949 992856
0.2803286 -0.1848762 1.0550001 140144
0.2355231 -0.1751506 1.0552403 199723
0.24159563 -0.17824097 1.0526001 265530
0.26951239 -0.17934096 1.052 1058392
0.27511874 -0.17605853 1.0530001 1059167
0.2803286 -0.17784289 1.0550001 595058
0.23347989 -0.16748965 1.0538751 201261
0.27953145 -0.16331048 1.052 205164
0.28253716 -0.16331048 1.052 3622277
0.29255623 -0.10119238 1.052 5473420
0.21088766 -0.3949905 1.0680001 266056
0.21197258 -0.38468346 1.068 266556
0.21360004 -0.37532577 1.0680002 333637
0.20640361 -0.36535218 1.0648421 134708
0.21451545 -0.36505255 1.0680002 330804
0.2227543 -0.3644762 1.0680001 134461
0.2033207 -0.35611102 1.0653001 66852
0.21732953 -0.355661 1.0680001 134963
0.2227543 -0.354357 1.068 334659
0.19732572 -0.34481144 1.0680001 131850
0.21665145 -0.34408492 1.068 200513
0.22259785 -0.34543741 1.068 400719
0.18949333 -0.33136001 1.064 198178
0.19323492 -0.33638161 1.066 263980
0.207792 -0.33210593 1.0663999 198695
0.2151555 -0.33484674 1.0669473 332084
0.22072001 -0.33870858 1.0680001 793422
0.18949333 -0.32933334 1.064 132132
0.2069796 -0.32504618 1.0660952 199735
0.21342556 -0.32471141 1.0674666 266820
0.19529144 -0.31185603 1.068 197408
0.2048156 -0.31420469 1.0680002 265529
0.21217601 -0.31755203 1.0680001 462652
0.19700514 -0.30408654 1.0662779 133156
0.20500232 -0.30428565 1.0649999 135213
0.21171106 -0.30238208 1.0680001 202289
0.22478858 -0.30005717 1.0680001 267842
0.19859962 -0.29576382 1.0672001 199720
0.20394334 -0.29491183 1.0653912 201261
0.21440305 -0.29481083 1.0680001 267074
0.22478859 -0.29497144 1.0680002 399433
0.23089145 -0.29497144 1.0680001 139336
0.19766478 -0.28242669 1.0680001 198956
0.20475312 -0.28521997 1.0652412 397120
0.21586113 -0.28551713 1.0646 267337
0.22483791 -0.2850948 1.0645713 464449
0.23210737 -0.28535134 1.0676364 399940
0.19653937 -0.27464914 1.0657896 132126
0.20471376 -0.27637282 1.0618572 265759
0.21647511 -0.27694821 1.061 463413
0.22536911 -0.27512565 1.0651579 398915
0.232186 -0.27527586 1.068 530756
0.24580956 -0.27191621 1.0680001 465485
0.25286174 -0.27239087 1.0680001 860501
0.17936 -0.26312888 1.064 856657
0.195553 -0.26514161 1.0655001 66059
0.20237082 -0.26612273 1.061 198686
0.21927336 -0.26777619 1.0610001 267842
0.22545026 -0.26553142 1.0621251 202047
0.23488361 -0.26562738 1.0647368 134968
0.24440396 -0.26485857 1.0648332 199732
0.25386038 -0.26502877 1.0661999 596560
0.20209526 -0.25565049 1.061 66061
0.21818364 -0.25215393 1.0616001 66851
0.22651319 -0.25443152 1.0611875 67090
0.23517735 -0.25529906 1.0610002 134445
0.24662358 -0.25538102 1.061 463163
0.25429946 -0.25592384 1.0672001 464458
0.20455001 -0.24352534 1.0615001 66059
0.21605259 -0.24403951 1.0628694 66062
0.22502497 -0.24559072 1.0626001 67884
0.23386914 -0.24801578 1.061 266042
0.24741931 -0.24539641 1.0613333 529731
0.25184086 -0.24439536 1.0657778 792394
0.22305652 -0.23464376 1.0630001 67354
0.24689305 -0.23544097 1.061 530512
0.25533694 -0.23428433 1.0658948 727894
0.26221943 -0.23251887 1.0680001 664152
0.22256269 -0.2255379 1.0638667 66842
0.24703929 -0.22552527 1.0612143 198454
0.25520191 -0.22419652 1.0656363 198441
0.26391867 -0.22466892 1.068 264749
0.22129431 -0.21927336 1.0610001 67342
0.23861676 -0.2137879 1.0610001 200486
0.24511835 -0.21534047 1.0624763 331561
0.25488004 -0.21519804 1.0646191 922955
0.26516712 -0.21537186 1.0658947 926285
0.27340803 -0.21380346 1.068 993372
0.23493573 -0.2066424 1.0610001 201015
0.24251431 -0.2091686 1.0610001 463676
0.2596924 -0.2091686 1.0610001 925270
0.2658543 -0.2077878 1.0622 1187665
0.2745817 -0.20529202 1.0650771 993371
0.2779932 -0.19712327 1.0614287 1058133
0.28293335 -0.1960324 1.0610001 1910905
0.21601628 -0.40505514 1.0733848 793162
0.22278669 -0.40436003 1.0780001 267318
0.23236892 -0.40211114 1.0780001 69159
0.21625125 -0.39584839 1.0732144 397392
0.22508825 -0.39567491 1.0775555 201023
0.23269431 -0.39568353 1.0763335 200240
0.21780476 -0.38575003 1.0720001 201791
0.22489218 -0.38489524 1.0725788 69425
0.23269647 -0.385539 1.0741177 464966
0.21930002 -0.37434003 1.0710001 135211
0.22525004 -0.37417006 1.0709999 332075
0.23316064 -0.37568033 1.0753335 1123399
0.21644402 -0.36169201 1.0710001 67630
0.22562404 -0.36424202 1.071 530244
0.23208319 -0.3660692 1.0766667 1845331
0.20708853 -0.35351074 1.0734999 67626
0.21388833 -0.35451549 1.0717223 67877
0.22814003 -0.35564002 1.0710001 926301
0.23071431 -0.3523905 1.0766667 992343
0.19830686 -0.34371486 1.0722001 132120
0.20500562 -0.34512472 1.0767726 132380
0.21248637 -0.34665748 1.0726669 67878
0.22667825 -0.34435391 1.0721251 663380
0.23100002 -0.34701335 1.0780001 664149
0.19590206 -0.33374792 1.072143 66588
0.20447414 -0.33645386 1.0741875 132124
0.21522002 -0.33558002 1.0710001 398649
0.22528295 -0.33520061 1.0747002 530766
0.19567493 -0.32551166 1.0737826 131607
0.20196001 -0.32538 1.0710001 329248
0.21853502 -0.32461503 1.0710001 399693
0.22497812 -0.32491341 1.0752 465226
0.24537335 -0.32134673 1.0780001 795730
0.19458838 -0.31657168 1.0714617 328735
0.20094001 -0.31824005 1.0710001 328748
0.21589346 -0.31445143 1.0712999 463177
0.225096 -0.31513208 1.0743127 465727
0.23475771 -0.31574747 1.0763999 661053
0.24443708 -0.31612027 1.0770588 860753
0.2163875 -0.30570814 1.0711666 136002
0.22552936 -0.30548537 1.0715216 267836
0.23484287 -0.3050772 1.0709999 530254
0.24207504 -0.30617449 1.0752 664150
0.21930002 -0.29886004 1.0710001 136522
0.23595592 -0.29530659 1.0718573 401484
0.23682733 -0.28489402 1.0713335 400963
0.23784547 -0.27567822 1.0710001 269642
0.24508429 -0.27638006 1.0715001 597587
0.25516495 -0.27670363 1.0720911 1057877
0.26341605 -0.27331305 1.0755001 1517399
0.26375729 -0.26454565 1.0743334 925518
0.25765201 -0.254388 1.0710001 464723
0.25711232 -0.24588887 1.0713001 793932
0.22752479 -0.41078004 1.0810001 202298
0.23570116 -0.41097471 1.0826 201794
0.24283335 -0.41126674 1.085 1125746
0.22615209 -0.4057011 1.0810003 464426
0.23568118 -0.40565506 1.082643 202039
0.24267122 -0.40636754 1.0863334 796503
0.22340669 -0.39842576 1.0810001 398674
0.23892002 -0.39543876 1.0860001 663886
0.2387 -0.38440001 1.085 1256282
0.2380468 -0.37488133 1.0843751 1255761
0.24143238 -0.37717336 1.0880001 1058632
0.2352988 -0.36482069 1.0842857 1320791
0.22958383 -0.34283143 1.0810001 727642
0.24502669 -0.32635906 1.0810003 598097
