# .PCD v0.7 - Point Cloud Data file format
VERSION 0.7
FIELDS x y z rgba
SIZE 4 4 4 4
TYPE F F F U
COUNT 1 1 1 1
WIDTH 1188
HEIGHT 1
VIEWPOINT 0 0 0 1 0 0 0
POINTS 1188
DATA ascii
-0.10532465 0.31472507 0.90523553 65795
-0.14124447 0.32370922 0.90800011 65793
-0.13622497 0.32493457 0.90354997 65794
-0.11069429 0.32092762 0.90100002 65793
-0.10584249 0.32501778 0.90506685 65793
-0.14095621 0.3363924 0.90800011 65793
-0.13710675 0.33424124 0.90313339 65793
-0.10564166 0.33475962 0.90514839 65794
-0.14095621 0.34244573 0.90800005 65793
-0.13693102 0.34514448 0.90342861 65793
-0.10513183 0.34470654 0.90486383 65793
-0.14124811 0.35728621 0.90616673 65793
-0.13765614 0.35396188 0.90335715 65793
-0.10597821 0.35452905 0.90416014 65793
-0.14317326 0.36536524 0.90290004 65793
-0.13962436 0.3649357 0.90100008 65793
-0.11069429 0.36983907 0.90100002 65793
-0.10632269 0.36470544 0.90347636 65793
0.16171049 0.36060572 0.90800005 65793
-0.14400631 0.37565261 0.90337497 65793
-0.13986954 0.37327144 0.90100002 65793
-0.11074343 0.37515485 0.90140003 65793
-0.10676525 0.37515152 0.90514296 65793
0.15810731 0.37746868 0.90800011 65793
0.16370611 0.3772358 0.90800011 65793
-0.14534889 0.38428929 0.90404767 65793
-0.11126635 0.38509411 0.90100002 65793
-0.10687367 0.38494253 0.90472013 65793
0.15657844 0.38475224 0.90750027 65793
0.16366889 0.38525334 0.90766674 65797
-0.14753644 0.39449063 0.9036842 65793
-0.11069429 0.39558193 0.90100002 65793
-0.10681099 0.39481753 0.90352166 65793
0.156726 0.39467484 0.90693581 65793
0.16405642 0.39459065 0.90661567 65793
-0.15326291 0.40510324 0.90560883 65793
-0.14769123 0.40443087 0.90160006 65793
-0.11143 0.40514427 0.90175003 65793
-0.10679982 0.40499946 0.90542865 65793
0.155513 0.40497297 0.90588605 65793
0.16398692 0.40509829 0.90643495 65793
-0.10550095 0.41076192 0.90800005 65793
0.15219811 0.41076192 0.90800005 65793
0.1660343 0.41076192 0.90800005 65793
-0.111612 0.067596003 0.917 65793
-0.10459451 0.064883538 0.91699988 65793
-0.12197556 0.078891121 0.91700006 65794
-0.11453663 0.075824209 0.9165861 65793
-0.10487484 0.075231403 0.91699994 65793
-0.095193364 0.075106651 0.91699994 65793
-0.15720001 0.082093343 0.91700006 65796
-0.1307089 0.089371115 0.91700006 65793
-0.1242473 0.086033717 0.91691983 65795
-0.11527997 0.085586697 0.91699994 65793
-0.10445596 0.085877776 0.91699988 65797
-0.095193356 0.085586682 0.91699994 65794
-0.18078001 0.097813338 0.91700006 131329
-0.17409746 0.095922023 0.91655552 65793
-0.16726585 0.096053921 0.91633332 65793
-0.14462401 0.097638674 0.91699994 65793
-0.13396935 0.096707128 0.91699994 65793
-0.1248867 0.095193349 0.91699988 65793
-0.11512093 0.095185935 0.91693091 65796
-0.1048 0.095193356 0.91699994 65793
-0.095112287 0.095109686 0.9162001 65793
-0.18136226 0.10450889 0.91699994 65796
-0.17480065 0.10493238 0.91635299 65793
-0.16535784 0.1045648 0.9161613 65793
-0.15532476 0.10616606 0.91643995 65795
-0.14487438 0.10487165 0.91654295 65793
-0.13449337 0.10479999 0.91699994 65793
-0.12488672 0.1048 0.91699994 65793
-0.11527315 0.1047939 0.91694432 65793
-0.10478771 0.10478677 0.91688889 65794
-0.095056467 0.10464737 0.91566694 65793
-0.085395306 0.10456567 0.91494489 65793
-0.17440876 0.11462227 0.9168666 65793
-0.16512877 0.11531531 0.91556281 65793
-0.15511432 0.1150286 0.9150005 65795
-0.14485958 0.11509754 0.91614294 65793
-0.13449337 0.11527995 0.91699994 65793
-0.12488671 0.11527998 0.91699994 65793
-0.11527997 0.11527997 0.91699994 65793
-0.10472623 0.1151965 0.91633344 65793
-0.094985731 0.11502858 0.91500044 65793
-0.085334562 0.1149371 0.91427815 65793
-0.17393829 0.12536192 0.91622216 65793
-0.16544697 0.12536119 0.9150005 65794
-0.15511432 0.12548569 0.9150005 65796
-0.145055 0.12522915 0.91603047 65794
-0.13493508 0.12478079 0.9167037 65793
-0.12541988 0.12530707 0.91596788 65793
-0.11527167 0.12487778 0.9169333 65793
-0.10448798 0.12527098 0.9163335 65793
-0.094985731 0.1254857 0.91500044 65793
-0.085272551 0.1252954 0.91361123 65793
-0.17385828 0.13398702 0.91636837 65793
-0.16557147 0.13507144 0.91500044 65794
-0.15505773 0.13502263 0.91466707 65793
-0.14461777 0.1347833 0.91627288 65793
-0.13448535 0.13448532 0.91694432 65793
-0.12466194 0.13494657 0.91677773 65795
-0.11521068 0.13441004 0.9164446 65793
-0.10488694 0.13469256 0.91566694 65794
-0.094985709 0.13507146 0.91500026 65793
-0.085376143 0.13503283 0.91473371 65793
-0.074770093 0.13518344 0.91461319 65793
-0.065087758 0.13534078 0.91471463 65793
-0.17210877 0.14435619 0.91639996 65793
-0.16534737 0.14448068 0.91517693 65793
-0.15520839 0.14474575 0.91555578 65793
-0.14486542 0.14486794 0.91633344 65793
-0.13510376 0.14472887 0.91635484 65794
-0.12542315 0.14485207 0.91545737 65793
-0.1150286 0.14465716 0.9150005 65794
-0.10457142 0.14465709 0.9150005 65795
-0.094985723 0.14465715 0.91500044 65794
-0.085400023 0.14465712 0.9150005 65793
-0.07504078 0.14472693 0.91465747 65793
-0.064304084 0.14465365 0.91420031 65793
-0.055070013 0.14492336 0.91471457 65793
-0.045265839 0.14537154 0.91400021 65793
-0.17030002 0.15196002 0.91700006 65793
-0.16489434 0.15529567 0.91606683 65795
-0.15513308 0.15513361 0.91511154 65796
-0.1448306 0.15530269 0.91611123 65793
-0.13516167 0.15521558 0.91560018 65793
-0.12550052 0.15513323 0.91511154 65793
-0.11506464 0.15516137 0.91527814 65793
-0.10453888 0.15506673 0.91472256 65793
-0.094985731 0.15511434 0.91500044 65793
-0.085389741 0.15509593 0.91488934 65793
-0.074983329 0.15520114 0.91550034 65793
-0.064486042 0.15511484 0.91500038 65793
-0.054895751 0.15510331 0.91493374 65793
-0.045316879 0.15512401 0.91505605 65793
-0.034837354 0.15502183 0.9144448 65793
-0.024632329 0.15518087 0.9141767 65793
-0.0052281488 0.15515517 0.91522241 65793
0.0052340212 0.15525915 0.91583359 65793
0.014839175 0.15536459 0.91646677 65793
-0.16480584 0.16456765 0.91690898 65794
-0.15504807 0.16550846 0.91534328 65795
-0.14466786 0.16548799 0.9152289 65793
-0.13508156 0.16558319 0.91506708 65793
-0.12547013 0.16555135 0.91488934 65793
-0.11498123 0.16550092 0.91461152 65793
-0.10462305 0.16533227 0.91437173 65793
-0.095147312 0.1657 0.91493583 65793
-0.085400008 0.16557144 0.9150005 65793
-0.075037286 0.16578072 0.91616672 65793
-0.064510271 0.16563186 0.91533363 65793
-0.055024073 0.16543387 0.91506934 65793
-0.045372441 0.16491781 0.9162001 65793
-0.034639336 0.16526365 0.91548526 65793
-0.024613556 0.16537847 0.9153533 65793
-0.014704304 0.16528788 0.91611111 65793
-0.0058593196 0.1649825 0.91657138 65793
0.0048430311 0.16251941 0.91699994 65793
0.013973333 0.16244 0.91699994 65793
-0.161916 0.172396 0.917 65798
-0.15538844 0.17513725 0.91577435 65793
-0.14469551 0.17500041 0.91506487 65795
-0.13507144 0.1751571 0.91500026 65793
-0.12538171 0.17559659 0.91481864 65793
-0.11496295 0.17505515 0.91446704 65793
-0.10476489 0.17566419 0.91324258 65793
-0.095616728 0.17540415 0.91472441 65793
-0.085363299 0.17508131 0.91460037 65793
-0.074947998 0.17516987 0.91506708 65793
-0.064547114 0.17532367 0.91586703 65793
-0.054861676 0.1752657 0.91661537 65793
-0.045413341 0.17466666 0.91699994 65793
-0.035142947 0.17491408 0.91621214 65793
-0.024223691 0.17514153 0.91662502 65793
-0.014963741 0.17488435 0.91650009 65793
-0.0080287624 0.17368039 0.91639996 65793
-0.15501913 0.1851683 0.91645455 65793
-0.14465702 0.18474302 0.91500038 65795
-0.1350331 0.18468851 0.91473377 65793
-0.12516955 0.18491153 0.91305894 65793
-0.11497899 0.18476276 0.91352654 65793
-0.10520441 0.18539257 0.91292316 65793
-0.095563702 0.18483117 0.91417676 65793
-0.08541093 0.18476523 0.91511154 65793
-0.075045764 0.18500234 0.91627789 65793
-0.064622819 0.18513569 0.91694438 65793
-0.05501999 0.18514666 0.91699994 65793
-0.045413341 0.18514664 0.91699994 65793
-0.035108004 0.18378423 0.91699988 65793
-0.025132593 0.18291481 0.91699994 65793
-0.016069336 0.18217735 0.91699994 65794
-0.15504968 0.19543871 0.91611773 65793
-0.14533748 0.19494277 0.91380018 65793
-0.13555716 0.19448076 0.91222864 65794
-0.12526268 0.19434771 0.91163635 65793
-0.11420819 0.19409469 0.91048372 65793
-0.10501374 0.19502036 0.91280013 65793
-0.095629409 0.19486937 0.91402888 65793
-0.085460529 0.19534142 0.915667 65793
-0.075037606 0.19544853 0.91616684 65793
-0.064626679 0.1956266 0.91699994 65793
-0.056142867 0.19375528 0.91699994 65793
-0.045621272 0.19358891 0.91699994 65793
-0.16156667 0.20523334 0.91700006 65795
-0.15521809 0.20491983 0.91560024 65793
-0.14527604 0.20515071 0.91341394 65793
-0.13718833 0.20451827 0.91085708 65793
-0.12451111 0.20251112 0.91000003 65793
-0.11197605 0.20351416 0.91042858 65794
-0.10475229 0.20500116 0.91315168 65793
-0.095378324 0.20571522 0.91421229 65793
-0.085554592 0.20528004 0.91447091 65793
-0.075044118 0.20506951 0.91626674 65793
-0.064788401 0.20490988 0.91699988 65793
-0.05851334 0.20523334 0.917 65793
-0.15436107 0.21402217 0.91568989 65793
-0.1449963 0.21514398 0.91236675 65793
-0.13895556 0.2111778 0.91000003 65793
-0.10434667 0.21164 0.90999997 65793
-0.09496177 0.2148204 0.91154832 65793
-0.085205108 0.21479927 0.91378814 65793
-0.075163171 0.21462786 0.91620016 65793
-0.065499999 0.21047334 0.91700006 65793
-0.15327272 0.22487043 0.91581815 65793
-0.14539383 0.22518747 0.91292602 65793
-0.13879049 0.22743812 0.91000003 65793
-0.094196498 0.22500604 0.91122723 65793
-0.085236609 0.2248546 0.91460037 65793
-0.075049512 0.2251562 0.91633344 65793
-0.06899333 0.22619335 0.917 65793
-0.15270701 0.2348562 0.91457897 65793
-0.14511041 0.23423699 0.91155553 65793
-0.13953334 0.2314 0.91000003 65793
-0.093333103 0.2350314 0.91165012 65793
-0.08534614 0.23514271 0.9144448 65793
-0.075920597 0.23454808 0.91630769 65793
-0.068120003 0.23143335 0.91700006 65793
-0.15283953 0.24491189 0.91637492 65793
-0.14654674 0.24444491 0.91111761 65793
-0.094793111 0.24495673 0.91154838 65793
-0.085527323 0.24494664 0.91406274 65793
-0.076701745 0.24460684 0.91656518 65793
-0.15244977 0.25495335 0.91599995 65793
-0.14610131 0.25510076 0.91163635 65793
-0.094747655 0.25469249 0.91080773 65793
-0.085350357 0.25497535 0.91424358 65793
-0.07747066 0.25387561 0.9164117 65793
-0.15211086 0.26520392 0.91669226 65793
-0.14606953 0.26517761 0.91290921 65793
-0.092738174 0.26502934 0.91119999 65794
-0.085186407 0.26539877 0.91530323 65794
-0.078308888 0.26481411 0.91699994 65793
-0.15173082 0.27530193 0.91609091 65793
-0.14645407 0.27473351 0.91247624 65793
-0.092515692 0.27510002 0.91088229 65793
-0.085607685 0.27513197 0.91505909 65793
-0.079473339 0.27422667 0.91700006 65793
-0.14667265 0.2853103 0.91252941 65802
-0.092400961 0.28559402 0.91100001 65793
-0.085338324 0.28487346 0.91524255 65793
-0.079473339 0.28383335 0.917 65793
0.1591216 0.28828096 0.91633338 65793
0.16474245 0.28796187 0.91699994 65793
0.17030002 0.28907335 0.91700006 65793
-0.14611974 0.29499683 0.9127273 65793
-0.09451592 0.2954486 0.91252005 65793
-0.086328514 0.2947081 0.91628575 65793
0.15766895 0.29544029 0.91678941 65793
0.16489331 0.29488531 0.91606671 65795
0.17030004 0.2951867 0.917 65793
-0.14529929 0.30513677 0.9140476 65793
-0.095439628 0.30487272 0.91233343 65793
-0.088836357 0.3046056 0.91600001 65794
0.15613098 0.3056308 0.9162001 65793
0.1652402 0.3053984 0.91587514 65793
0.17154764 0.30504289 0.917 65793
-0.14458962 0.31448972 0.91376197 65794
-0.1014 0.31980002 0.91000003 65794
-0.09582112 0.31510857 0.91345477 65794
-0.089177042 0.31410891 0.91699994 65793
0.1483873 0.31527334 0.91699994 65793
0.15492201 0.31514031 0.91456783 65793
0.1649071 0.31510776 0.91462517 65793
0.17157032 0.31432059 0.91699994 65793
-0.144446 0.3242743 0.91285717 65793
-0.1014 0.32413334 0.91000003 65793
-0.096077971 0.3247686 0.91440016 65793
0.1485461 0.32464185 0.91699994 65793
0.15499452 0.32528004 0.9135716 65793
0.16491456 0.32547402 0.91354561 65793
0.17282571 0.32502845 0.91649991 65793
-0.14210635 0.33138254 0.91166675 65793
-0.10140001 0.33453333 0.91000003 65794
-0.096634656 0.33501825 0.91416681 65793
0.14806587 0.33524349 0.91576922 65793
0.15467559 0.33551091 0.91310811 65793
0.16530782 0.33553925 0.91352791 65795
0.17353584 0.33480251 0.91617638 65793
-0.14184445 0.34522223 0.91000003 65793
-0.10140001 0.34493336 0.91000003 65793
0.1472874 0.34512654 0.91511112 65793
0.15475255 0.34531057 0.91167647 65793
0.16495776 0.34526646 0.91200006 65794
0.17354344 0.34501138 0.91624993 65793
-0.10176869 0.35652134 0.91137505 65793
0.14650404 0.3550663 0.91543484 65793
0.1544046 0.35507974 0.91083336 65793
0.16485709 0.35513973 0.9106487 65793
0.17388646 0.35503009 0.91528577 65793
0.14600982 0.36552751 0.91465527 65793
0.15431088 0.364728 0.91077417 65793
0.16499063 0.36500859 0.91049993 65793
0.1746098 0.3652969 0.91492313 65793
0.18078001 0.36942002 0.91700006 65794
0.13886002 0.37466002 0.91700006 65793
0.14530423 0.37518439 0.91311902 65793
0.15457866 0.37381062 0.90999991 65793
0.16555655 0.37315083 0.91012496 65793
0.17456606 0.37512222 0.9146924 65793
0.13886 0.38164669 0.91700006 65793
0.14514957 0.38507414 0.91240007 65793
0.1521 0.38393334 0.90999997 65793
0.16842225 0.38451114 0.90999997 65793
0.17427336 0.38568631 0.91399997 65793
0.13886 0.39527068 0.917 65793
0.14506787 0.39513606 0.91214281 65793
0.1521 0.39433336 0.90999997 65793
0.16900001 0.39520001 0.91000003 65793
0.17515445 0.39531329 0.91275769 65793
0.18118791 0.39562252 0.91528583 65793
0.13886 0.40522671 0.917 65793
0.14516063 0.40537652 0.91192669 256
0.15166667 0.403 0.91000003 65793
0.16900001 0.40560004 0.91000003 65793
0.17463329 0.40512964 0.91224152 65793
0.18072191 0.40412334 0.9145 65793
0.13865809 0.41248477 0.9156667 65793
0.14386073 0.41204029 0.91275012 65793
0.16900001 0.41166666 0.91000003 65793
0.17531025 0.41194239 0.91350007 65795
-0.091522858 -0.047968574 0.92700005 3226695
-0.10241143 -0.0309 0.92700005 3947088
-0.094214186 -0.03303916 0.92644459 3752021
-0.11035715 -0.021188572 0.92700005 858455
-0.10435644 -0.024089748 0.92576003 3622245
-0.11128519 -0.014021693 0.92655563 3487554
-0.10476764 -0.014966478 0.92439991 2894151
-0.11094572 -0.0091228578 0.92700005 2829365
-0.10434113 -0.0060973829 0.9258334 2172464
-0.10152857 0.00088285719 0.92700005 196887
-0.09420076 0.0026425172 0.92435718 65803
-0.085029945 0.0071624499 0.92314297 65796
-0.080819726 0.015002859 0.92671442 65793
-0.074816629 0.014961221 0.92416 65793
-0.090934284 0.029134287 0.92700005 65795
-0.083667681 0.025192901 0.92554176 65794
-0.092371374 0.036345594 0.9248668 65794
-0.086248644 0.033533037 0.92056251 65798
-0.13448858 0.048262861 0.92700005 65794
-0.12523811 0.046564173 0.92687505 65796
-0.10440075 0.047233675 0.92335725 65797
-0.095715657 0.043024767 0.92200011 65793
-0.083556719 0.046438098 0.92000002 65794
-0.077252239 0.045889828 0.92010528 65793
-0.18415126 0.056222517 0.92636371 394257
-0.17736536 0.056269962 0.92653859 65793
-0.16226916 0.057032574 0.92700005 65793
-0.15472086 0.056769002 0.92655563 65793
-0.14403857 0.056581091 0.92623812 65793
-0.13501799 0.054712135 0.92659992 65793
-0.12534268 0.054728102 0.92683339 65795
-0.11470641 0.055292461 0.92646664 65793
-0.10639936 0.054881856 0.92247373 65796
-0.083764084 0.052712657 0.92028582 65793
-0.1940376 0.066867732 0.92655563 263436
-0.18502381 0.065196723 0.92511082 65794
-0.17488225 0.06557709 0.92557561 65793
-0.16459337 0.066232227 0.92624998 65794
-0.15502651 0.065178037 0.92486095 65796
-0.1443826 0.065148503 0.92441666 65793
-0.13489157 0.06524197 0.92573321 65793
-0.12524281 0.065263994 0.92608339 65796
-0.11566077 0.064414747 0.9225201 65793
-0.10864762 0.06045714 0.92000002 66049
-0.093482792 0.063287921 0.92000002 65793
-0.086742856 0.063961908 0.92000002 65797
-0.19392255 0.074276499 0.92600006 65793
-0.18500005 0.074880973 0.92499977 65794
-0.17445311 0.0754501 0.92376459 65794
-0.1646346 0.075776875 0.92256254 65795
-0.1548674 0.075556591 0.92154574 65795
-0.14486666 0.074894257 0.9232353 65793
-0.13457991 0.07526467 0.92492586 65794
-0.12544383 0.074933149 0.92280024 65793
-0.11740953 0.071847618 0.92000002 65794
-0.10251428 0.070971429 0.92000002 65793
-0.19331624 0.085750885 0.92685723 65793
-0.18518643 0.0843281 0.92461759 65795
-0.17493312 0.085272186 0.92096317 65796
-0.16478482 0.085020527 0.92033345 65795
-0.15380934 0.085473508 0.9208464 65794
-0.14442268 0.084380262 0.92381805 65793
-0.13501759 0.084687561 0.92200017 65793
-0.12844954 0.08358857 0.92000002 65793
-0.10893969 0.08265397 0.92000002 65793
-0.19449455 0.095417939 0.92525005 65794
-0.18542425 0.094526991 0.9214645 65797
-0.17669845 0.09211684 0.92000008 65793
-0.16348258 0.0938254 0.92000002 65793
-0.15514204 0.094663434 0.9203335 131329
-0.14564347 0.093386754 0.92038471 65795
-0.13571727 0.093199 0.91999996 65798
-0.12003809 0.095504761 0.92000002 65793
-0.1938657 0.10486281 0.92525017 65793
-0.18628338 0.105356 0.92076194 65794
-0.16121905 0.10251428 0.92000002 65793
-0.15561144 0.10181333 0.92000002 65793
-0.1463238 0.10076191 0.92000002 65793
0.12536573 0.10506003 0.92700011 65794
-0.19373314 0.11453962 0.92577279 65795
-0.18513553 0.1149408 0.92128021 65794
-0.17961904 0.11740953 0.92000002 65793
-0.14457142 0.11828572 0.92000002 66049
0.11463577 0.11463228 0.9258889 65793
0.12535846 0.11476425 0.92694443 65793
-0.19203083 0.1243946 0.92633331 65793
-0.18533576 0.12472649 0.9222669 65793
-0.17891811 0.12371811 0.92000002 65793
0.11492429 0.12501512 0.92499971 65793
0.12466862 0.12500913 0.92667741 65793
-0.18499438 0.13480979 0.92372 65793
-0.17856763 0.13528381 0.92000002 65793
0.094911255 0.13466565 0.92299998 65793
0.10490341 0.13487449 0.92559993 65793
0.11469872 0.13499114 0.92640007 65793
0.12494065 0.13520797 0.92700005 65793
0.13154571 0.13596001 0.92700005 65793
-0.18415561 0.14466709 0.92421442 65795
-0.17625186 0.14581184 0.92071438 65793
0.057828568 0.14982858 0.92000002 65793
0.085431099 0.14488278 0.92326939 65793
0.095192403 0.14463861 0.92522836 65793
0.1050234 0.14473732 0.92666668 65793
0.1147714 0.14478853 0.92700005 65793
0.12360001 0.14381741 0.92700005 65793
-0.17508276 0.15507729 0.92120016 65793
0.027746035 0.15742224 0.92000002 65793
0.035278194 0.15665364 0.91999996 65793
0.045177411 0.15584965 0.92027283 65793
0.054917112 0.15558274 0.92177796 65793
0.065084204 0.15567413 0.92346692 65793
0.075591676 0.15504162 0.92362523 65793
0.085076153 0.15510586 0.92583871 65793
0.095308483 0.15429175 0.92692602 65793
0.10294115 0.153264 0.92700005 65793
0.1171084 0.15450001 0.92700005 65793
0.12467206 0.1561396 0.92700011 65793
-0.17465129 0.1648588 0.92250019 65793
-0.16735238 0.16910475 0.92000002 65793
-0.00087619049 0.16735238 0.92000002 65793
0.0054877186 0.16707572 0.91999996 65793
0.015317984 0.16694491 0.92058825 65793
0.024643198 0.16446327 0.92090333 65793
0.035053398 0.16418062 0.92090338 65793
0.044735245 0.16447608 0.92238474 65793
0.054607987 0.16469839 0.92476666 65793
0.065060422 0.16479149 0.92671442 65793
0.075024836 0.16474935 0.92678261 65793
0.081443571 0.16354929 0.92700005 65793
0.097997144 0.16156286 0.92700005 65793
0.11830286 0.16156286 0.92700005 65794
0.12498735 0.16282409 0.92700011 65793
-0.1662275 0.17531441 0.92081827 65796
-0.0039826841 0.17523813 0.92000002 65793
0.0052718418 0.174698 0.92176682 65793
0.014838731 0.17526112 0.92550004 65793
0.024819808 0.17438817 0.92633343 65793
0.035188604 0.17393942 0.92610341 65793
0.045059606 0.17391542 0.92616665 65793
0.052480955 0.17176479 0.92700005 65793
-0.16490553 0.18451032 0.92121756 65794
-0.15859048 0.18137144 0.92000002 65793
-0.035423137 0.18813063 0.92000008 65793
-0.023515079 0.18695477 0.92016667 65793
-0.014077461 0.18627812 0.92000008 65793
-0.0051339688 0.18488589 0.92242438 65793
0.0051645446 0.18489996 0.92511433 65793
0.013107033 0.18397386 0.92700011 65793
-0.16472733 0.1946435 0.92188483 65793
-0.054177776 0.19699684 0.92000002 65793
-0.045075133 0.19811639 0.91999996 65793
-0.034906361 0.19515584 0.92179418 65793
-0.024631908 0.1953063 0.92372227 65793
-0.014955145 0.19530144 0.92369998 65793
-0.0056562521 0.19508207 0.92577416 65793
0.0030900002 0.19349286 0.92700005 65793
-0.063377783 0.20882539 0.92000002 65793
-0.053878941 0.20548546 0.9207409 65793
-0.045425907 0.20478712 0.92132264 65793
-0.03522991 0.20521824 0.92479986 65793
-0.024666671 0.20526186 0.92499977 65793
-0.014988228 0.20544074 0.92579991 65793
-0.0078217797 0.20473531 0.92633349 65793
-0.15859048 0.21817145 0.92000002 65793
-0.070971429 0.21641906 0.92000002 65793
-0.065027922 0.21542454 0.92006069 65793
-0.054424927 0.21508174 0.92176676 65793
-0.044693127 0.215262 0.92422217 65793
-0.035272438 0.21517314 0.92594421 65793
-0.025518509 0.21448085 0.9262141 65793
-0.015670713 0.21320999 0.92700005 65793
-0.008828572 0.21188572 0.92700005 65793
0.15856116 0.21735942 0.92700005 65793
0.16481787 0.21562909 0.92581475 65793
0.17212652 0.217144 0.92683339 65793
-0.15808982 0.225932 0.92000008 65793
-0.064047828 0.22499332 0.92128593 65793
-0.05458216 0.22538243 0.92441654 65793
-0.045078516 0.22552265 0.92562056 65793
-0.036270715 0.22476076 0.92700005 65793
-0.029134287 0.22159715 0.92700005 65793
0.15691233 0.2257891 0.92609096 65793
0.16457671 0.22530143 0.92409986 65793
0.1723493 0.22548373 0.92644447 65793
-0.07167238 0.23779809 0.92000002 65793
-0.064539045 0.23528333 0.92066687 65793
-0.054686766 0.23508187 0.92380643 65793
-0.045052856 0.23497587 0.92608345 65793
0.14861429 0.23572285 0.92700005 65793
0.15502067 0.23488052 0.92486119 65793
0.16498633 0.23549803 0.92217189 65794
0.17318526 0.23433685 0.9240002 65793
-0.071847618 0.24533336 0.92000002 65793
-0.065168396 0.24535573 0.92274195 65793
0.14697343 0.24639419 0.92655563 65793
0.15461966 0.24481833 0.92370588 65793
0.1650819 0.24498855 0.92200041 65793
0.17355436 0.24530806 0.92443758 65794
-0.073115431 0.25593755 0.92053342 65793
-0.064922854 0.25505874 0.92302877 65793
0.14640518 0.2553781 0.92534786 65793
0.15462713 0.25478378 0.92250031 65793
0.16508189 0.25464761 0.92200047 65793
0.17336255 0.25519779 0.92400008 65793
-0.074223019 0.26512027 0.92107701 65793
0.14488181 0.26557285 0.92345184 65793
0.15454474 0.26518479 0.92200047 65794
0.16506241 0.26515228 0.92188931 65794
0.17467226 0.26550654 0.92471445 65794
0.14536382 0.27525964 0.92360026 65793
0.15466793 0.27509943 0.92036378 65793
0.1643894 0.2753295 0.92087519 65793
0.17385319 0.27431929 0.92539126 131329
0.18098572 0.27103716 0.92700005 65793
0.14496444 0.2849091 0.92252797 65793
0.15472046 0.2848728 0.92014819 65795
0.16513862 0.28347871 0.92016006 65793
0.17454736 0.28483957 0.92228591 65795
0.18214042 0.28815165 0.9258889 65793
0.13860857 0.29531574 0.92700005 65793
0.14515457 0.29493138 0.92235005 65793
0.15361004 0.29407719 0.91999996 65793
0.17549384 0.29482475 0.92133343 65793
0.18139523 0.29547986 0.92383337 65793
0.13835633 0.30609918 0.92700011 65793
0.14491585 0.30515239 0.92223793 65793
0.15233198 0.30328709 0.92000008 65793
0.17593764 0.30474773 0.92038101 65793
0.1828918 0.30550522 0.92445469 65794
0.13787167 0.31434932 0.92650008 65793
0.14343463 0.31511331 0.92250007 65793
0.17666464 0.31532404 0.92083341 65793
0.18260027 0.31616661 0.92266673 65797
0.13796216 0.32650954 0.92590916 65793
0.14336291 0.32506937 0.92185193 65793
0.17703748 0.3245419 0.921 65794
0.1829749 0.32508802 0.92308712 66052
0.13759029 0.33489639 0.92450017 65793
0.14379796 0.33494648 0.92066687 65793
0.17874287 0.33470482 0.92000002 66049
0.18321207 0.33486688 0.92044449 196865
0.13726243 0.34523973 0.92419046 65793
0.14301233 0.34518149 0.92058825 65793
0.17821716 0.34399244 0.92000002 65797
0.18309727 0.34527576 0.92280006 65795
0.13746993 0.35480413 0.9242273 65793
0.14189109 0.35444835 0.92018193 65793
0.17821714 0.35415623 0.92000002 65793
0.18497959 0.35465327 0.9239167 66049
0.19089113 0.35510382 0.92366672 131329
0.136448 0.3653014 0.92396688 65793
0.14176762 0.3637943 0.92000002 65793
0.179327 0.36303493 0.92000002 65793
0.18483226 0.36505473 0.92292023 65793
0.19116668 0.3611905 0.92500007 131329
0.13603494 0.37519291 0.92348015 65793
0.14106666 0.37150475 0.92000002 65793
0.17961904 0.3776381 0.92000002 65793
0.18579073 0.37547934 0.92348015 65796
0.19054668 0.3723124 0.92200005 1181189
0.13625561 0.38533247 0.9235186 65793
0.17961906 0.38464761 0.92000002 65793
0.18520252 0.3854281 0.92440003 65793
0.19116668 0.38850001 0.92500007 66305
0.18532804 0.3933872 0.92441672 65793
0.19116668 0.39026192 0.92500007 66049
0.18420002 0.40699524 0.921 65793
0.17961904 0.41531429 0.92000002 65794
0.18299121 0.4150326 0.92375004 65793
-0.1147017 -0.17365295 0.93617666 529993
-0.12199524 -0.1611762 0.93500006 330041
-0.13118 -0.14010382 0.93700004 526641
-0.12689659 -0.14260249 0.9370001 265530
-0.12740715 -0.13898811 0.93550009 461370
-0.11206318 -0.098388895 0.93633336 919084
-0.10568215 -0.094933003 0.93313044 2499115
-0.10330576 -0.085824184 0.93304169 5396591
-0.098314293 -0.080600001 0.93000007 4870241
-0.10083905 -0.078529522 0.93700004 2633550
-0.094513841 -0.074455559 0.9344669 2830670
-0.088369392 -0.071884774 0.93185729 2702407
-0.11154763 -0.062466666 0.93700004 265010
-0.10471252 -0.064194575 0.93504179 329526
-0.095359467 -0.065624945 0.9340955 264227
-0.087485723 -0.066795245 0.93100017 328481
-0.11199381 -0.058450952 0.93700004 1184034
-0.10450318 -0.055761289 0.93419355 1645093
-0.097924292 -0.05184143 0.93050009 2306357
-0.1025969 -0.043714762 0.93675017 3817565
-0.095600918 -0.044687457 0.93278271 3686734
-0.11333238 -0.031233337 0.93700004 4343640
-0.10523866 -0.035033945 0.93356007 4211030
-0.095652908 -0.037702717 0.9306156 3819087
-0.12174606 -0.02327905 0.9368183 2762320
-0.11495116 -0.025024587 0.93455547 3225437
-0.10828115 -0.027824 0.93040007 4869971
-0.12301886 -0.015155047 0.93600005 3751248
-0.11581494 -0.015627082 0.93093771 3225933
0.11244001 -0.015170477 0.93700022 3356472
-0.12341408 -0.0058427514 0.93600017 1713973
-0.11535844 -0.0055169393 0.93328577 1975348
-0.1079962 -0.002070159 0.93200016 987429
0.12396444 -0.0027811204 0.93641198 2435163
0.13118 -0.0017847619 0.93700004 1972310
-0.10301805 0.0049492591 0.93427795 65796
-0.095608704 0.0076650009 0.93275023 65793
-0.088930801 0.0091593666 0.9306668 65793
0.13143496 0.0059917015 0.93700016 4608614
-0.11244 0.01874 0.93700004 65793
-0.10391819 0.016054856 0.93660021 65798
-0.095306188 0.015141217 0.93523997 65793
-0.086367905 0.015081782 0.93152183 65793
0.13118 0.011600953 0.93700004 3294547
-0.13236985 0.028258732 0.93700016 65793
-0.12444124 0.027062904 0.93680972 65794
-0.11477243 0.025088079 0.93517238 65793
-0.10501859 0.024918728 0.93449986 65793
-0.095304362 0.024751527 0.93399996 65793
-0.088274859 0.022865718 0.93060017 65793
0.13118 0.029448573 0.93700004 65793
-0.15370913 0.036675241 0.93600017 65796
-0.14418513 0.035923727 0.93663663 65793
-0.13436814 0.035132192 0.93632007 65793
-0.12506208 0.035378002 0.93258065 65795
-0.11515588 0.035597552 0.93114287 65793
-0.10490111 0.035332352 0.93438214 65794
-0.096849985 0.034371488 0.93180019 65793
0.13105443 0.035967626 0.93428588 65793
-0.17495468 0.044358756 0.9333635 196879
-0.16508482 0.044653345 0.93341154 65793
-0.15463169 0.044429585 0.93311101 65795
-0.14513257 0.044517051 0.93489999 65794
-0.13546172 0.043393977 0.9327777 65794
-0.12472469 0.043400001 0.93000025 65794
-0.11526509 0.045220509 0.93099999 65793
-0.10571595 0.042532317 0.93173355 65797
0.13332106 0.045623071 0.93322235 65794
-0.19478109 0.055097084 0.93167728 4016734
-0.18638499 0.051690798 0.9304446 2239809
-0.17388554 0.054033462 0.93008721 65793
-0.16513745 0.054567505 0.93045181 65794
-0.1543089 0.051754147 0.93076944 65794
-0.1462156 0.052499387 0.93207157 131329
-0.11602857 0.050485719 0.93000013 65793
0.13558985 0.0552999 0.93224978 65793
0.14327034 0.056853332 0.93615401 65793
0.15081239 0.059789527 0.93700004 65793
-0.19739638 0.063236356 0.93083352 2636355
-0.17153333 0.061704766 0.93000007 65793
-0.16710478 0.061704762 0.93000019 65795
0.11671746 0.066330165 0.93000019 65793
0.12518096 0.068052389 0.93000025 65796
0.1351317 0.065282732 0.93171418 65793
0.14494681 0.064912997 0.93367994 65793
-0.19827349 0.077057153 0.93000019 65793
0.11868572 0.07351429 0.93000019 65795
0.1251168 0.074977651 0.93000025 65795
0.13499676 0.074658833 0.9316569 65793
0.14495006 0.074694768 0.93369991 65793
0.1522402 0.078351051 0.9370001 65793
0.12701143 0.085323818 0.93000031 65796
0.13487139 0.085180968 0.93166649 65793
0.14485438 0.085310176 0.93309987 65793
0.15359129 0.085375875 0.93625015 65793
0.12567301 0.092803188 0.93000019 65795
0.1351743 0.09474095 0.9315713 65793
0.14473917 0.095012151 0.93235981 65793
0.15436947 0.094846755 0.9352963 65793
0.13561344 0.1045891 0.93066674 65794
0.14468192 0.10473907 0.93199974 65793
0.15463653 0.10507818 0.93388551 65794
0.16452686 0.10685088 0.93700016 65793
0.13571034 0.11530881 0.93133324 65793
0.14467183 0.11538193 0.9319331 65793
0.15452816 0.11505966 0.93381232 65793
0.16496408 0.1150305 0.93628001 65793
0.17080174 0.11404629 0.9370001 65793
0.12842858 0.12842858 0.93000007 65793
0.13509169 0.12520939 0.93100005 65793
0.14452229 0.12501401 0.93096 65793
0.15489222 0.12471512 0.93341154 65793
0.16497484 0.12484345 0.93633348 65793
0.17393316 0.1263936 0.93700022 65793
0.12842858 0.13197143 0.93000007 65793
0.13533379 0.13453124 0.93070978 65793
0.14468192 0.13491811 0.93199974 65793
0.15457296 0.13502562 0.93274975 65793
0.16484852 0.13533743 0.93596554 65794
0.17411342 0.13464315 0.93676013 65793
0.12665714 0.14720573 0.93000025 65793
0.13456349 0.14486864 0.93106252 65793
0.14468192 0.14468192 0.9319998 65793
0.15444575 0.14468192 0.93199974 65793
0.1645927 0.14474879 0.93376911 65793
0.17280534 0.14434953 0.93642873 65793
0.094771437 0.15810001 0.93000007 65793
0.10639644 0.15599643 0.93000025 65793
0.11295811 0.15570858 0.93000031 65794
0.12701143 0.15216574 0.93000013 65793
0.13551281 0.15439947 0.93154818 65793
0.14468195 0.15444572 0.93199974 65793
0.15443641 0.15443628 0.93194413 65793
0.16445062 0.15465157 0.93238682 65793
0.17461839 0.15547174 0.93640012 923935
0.069085717 0.16917145 0.93000007 65793
0.075285718 0.16917145 0.93000007 65793
0.086376406 0.16593666 0.93000025 65793
0.094574593 0.16516934 0.93000025 65793
0.10451432 0.16474283 0.93000019 65793
0.11469999 0.16518573 0.93000025 65793
0.1246889 0.16651434 0.93000019 65793
0.13481613 0.16496912 0.93127757 65793
0.14484333 0.16505708 0.93193519 65793
0.15441994 0.16496192 0.93108577 65794
0.1650971 0.16509709 0.93199962 65795
0.17511927 0.16502616 0.93440735 197639
0.18174827 0.16598286 0.93700016 856363
0.0186 0.1798 0.93000007 65793
0.024357144 0.1798 0.93000007 65793
0.036019053 0.17950478 0.93000019 65793
0.045171432 0.17980002 0.93000013 65793
0.055524077 0.17589457 0.93052185 65793
0.065266125 0.1744049 0.93057138 65793
0.074969873 0.17486545 0.93096304 65793
0.085120328 0.17467563 0.93100005 65793
0.094893582 0.17521872 0.93000025 65793
0.10467062 0.17511091 0.93000025 65793
0.11514285 0.17537144 0.93000019 65793
0.12488575 0.17537144 0.93000031 65793
0.13459046 0.17505237 0.93124992 65793
0.14468192 0.17486095 0.9319998 65793
0.15444574 0.17486097 0.93199974 65793
0.16493072 0.17530997 0.93181795 65793
0.17536362 0.17459628 0.93364275 65793
0.18242818 0.17516164 0.93700027 65793
0.017123809 0.18570477 0.93000025 65793
0.024817212 0.18523541 0.93060023 65793
0.035017002 0.18534839 0.93214822 65793
0.044634167 0.18522727 0.93326092 65793
0.055629797 0.18484186 0.9338063 65793
0.064976387 0.18514116 0.93459994 65793
0.074767925 0.1848233 0.93362844 65793
0.085322142 0.18487266 0.93324977 65793
0.09479136 0.18521661 0.9315384 65793
0.10456949 0.1851742 0.93196851 65793
0.11526842 0.18532152 0.93103343 65793
0.12501584 0.18530679 0.93096006 65793
0.13518263 0.18496306 0.93238211 65793
0.14468195 0.18462481 0.93199974 65793
0.15432391 0.18448067 0.93127769 65793
0.16495295 0.18471372 0.93042439 65795
0.17489545 0.18465541 0.93216658 65793
0.18231742 0.18537267 0.93642884 65793
-0.00088571431 0.19928573 0.93000007 65793
0.0067954496 0.19645156 0.93055576 65793
0.065033652 0.19509847 0.93540001 65793
0.085455954 0.19503465 0.93349981 65795
0.095220722 0.19489101 0.9343999 65794
0.1049277 0.1953648 0.9336763 65793
0.11551332 0.19476156 0.93349981 65794
0.12496717 0.19538556 0.93279982 65793
0.13522702 0.19512776 0.93470961 65793
0.14468192 0.19527617 0.93199974 65793
0.15424091 0.19501945 0.93077779 65793
0.16474286 0.19485721 0.93000019 65793
0.17465049 0.19503807 0.93086678 65793
0.1829852 0.19544007 0.93461913 65793
-0.0030507939 0.20568258 0.93000019 65793
0.085237972 0.20494024 0.93496954 65793
0.095193826 0.20513926 0.9358387 65793
0.10496066 0.20514759 0.93399984 65793
0.11456425 0.20463064 0.93348259 65793
0.12460481 0.20526436 0.93453109 65793
0.13527948 0.20471042 0.93397117 65793
0.14487438 0.20495494 0.93192297 65793
0.15441269 0.20548546 0.93023551 65793
0.16474284 0.20548567 0.93000019 65793
0.17441815 0.20531052 0.93064296 65793
0.18167134 0.20495757 0.93381834 65793
0.10526242 0.21498834 0.93666685 65793
0.11497004 0.21479158 0.93580002 65793
0.12464366 0.21545626 0.93483323 65793
0.13514739 0.21516778 0.93358314 65793
0.14528966 0.21470453 0.93102843 65793
0.15439785 0.21463206 0.93008721 65793
0.16474287 0.21168573 0.93000007 65793
0.17581514 0.21393071 0.93077797 65793
0.18184896 0.21554227 0.93492323 65793
0.12473685 0.22543886 0.93490314 65793
0.13512194 0.22553365 0.93341148 65793
0.14530766 0.22505212 0.93033344 65793
0.15295605 0.22394949 0.93000025 65793
0.1773583 0.22448745 0.93020022 65793
0.18186192 0.22452942 0.93342876 65794
0.12485059 0.23484588 0.93515617 65793
0.13516185 0.23531064 0.93368733 65793
0.14412922 0.23459297 0.93043494 65793
0.17768653 0.23543838 0.9308573 65793
0.18173525 0.23515876 0.93488896 65797
0.13542204 0.2449429 0.93396854 65793
0.14329198 0.24408258 0.93066669 65793
0.17809241 0.24454319 0.9303335 65793
0.18161039 0.24481091 0.9347502 65793
0.13499466 0.25458512 0.9330855 65793
0.14163379 0.25548834 0.93000025 65793
0.17802858 0.25508577 0.93000019 66049
0.1826915 0.25505129 0.9346472 65793
0.134841 0.26474094 0.93237132 65793
0.1417143 0.26305717 0.93000019 65793
0.17909144 0.26376572 0.93000013 65797
0.18248019 0.2636492 0.93381822 131334
0.13470867 0.27473521 0.93055564 65793
0.14082858 0.27590001 0.93000007 65793
0.17904083 0.27672249 0.93000019 65793
0.18400596 0.27504167 0.93176496 131329
0.13490567 0.28510347 0.93099999 65793
0.14082858 0.28342858 0.93000007 65793
0.17935714 0.28210002 0.93000007 65794
0.18398486 0.28336787 0.93175018 65793
0.13425919 0.29446596 0.93062079 65793
-0.073647358 -0.28156251 0.94800007 331335
-0.065908574 -0.28124005 0.94800001 594254
-0.074403644 -0.2751312 0.94745457 133174
-0.072183438 -0.26653376 0.94740003 132387
-0.064176433 -0.24458887 0.94617856 328997
-0.083424002 -0.23203431 0.94800007 659788
-0.07434687 -0.2336162 0.94660008 463173
-0.084776044 -0.22492754 0.94615382 528974
-0.09118858 -0.21217144 0.94800013 331324
-0.085587017 -0.21534027 0.9433043 462645
-0.092365436 -0.20367347 0.94709998 199744
-0.087246552 -0.20516261 0.94180024 461363
-0.11105144 -0.19050287 0.94800007 594767
-0.10382858 -0.19140573 0.94800001 594763
-0.094682902 -0.1955142 0.94529164 465482
-0.087659329 -0.19694422 0.94057149 790080
-0.12008001 -0.18237716 0.94800007 200246
-0.11415402 -0.18462896 0.94461113 463435
-0.10528387 -0.18537447 0.94484997 725836
-0.096758552 -0.18647604 0.94205266 529219
-0.11555608 -0.17865556 0.94055557 398149
-0.10474286 -0.17943133 0.94000012 528464
-0.099371433 -0.17994288 0.94000006 529738
-0.12594257 -0.16359632 0.94589996 264750
-0.13237287 -0.15402715 0.94735718 331319
-0.12666939 -0.15541609 0.94326675 199732
-0.13340449 -0.14586163 0.94371432 198956
-0.12714078 -0.14685264 0.94072741 134955
0.16341716 -0.12098286 0.94800007 531027
-0.11646858 -0.10021715 0.94800007 199729
-0.11213286 -0.093830012 0.94190007 6117745
0.16334218 -0.095220514 0.94694114 197923
0.17244571 -0.092994288 0.94800007 198712
-0.11103287 -0.085404284 0.94400007 7105152
-0.10769683 -0.082264766 0.9423334 5198954
0.15550829 -0.088396296 0.9471001 65797
0.1625143 -0.089382865 0.94800007 65799
-0.11236179 -0.07355465 0.94762498 1517126
-0.10529619 -0.075066149 0.94374073 4014170
-0.098271333 -0.073380329 0.94088894 2830672
0.13654728 -0.074527569 0.94288254 66058
0.1424592 -0.077597141 0.94585729 66057
-0.11566605 -0.065362975 0.94320005 265264
-0.10575239 -0.069006667 0.94100004 262438
0.13268942 -0.064414293 0.94500005 461872
-0.11479937 -0.055195734 0.94363171 2762549
-0.10772699 -0.051625401 0.94000006 3487299
0.13596371 -0.05478375 0.94293344 726610
0.14355335 -0.051956192 0.9460001 1053777
-0.10691233 -0.045837764 0.94107157 4079448
0.14472269 -0.045434292 0.94246161 397635
0.15137905 -0.044841908 0.94800013 333115
-0.11543187 -0.035432335 0.9423334 4277850
0.12980953 -0.031333335 0.94000006 1380359
0.13882144 -0.033352859 0.94650006 723466
0.14338763 -0.038536191 0.94100004 133142
-0.12608562 -0.026124315 0.94242108 2700618
-0.11906667 -0.02954286 0.94000006 4802389
0.11772381 -0.021038096 0.94000006 1774878
0.12540853 -0.024598463 0.94342858 1314833
0.1305 -0.027896194 0.94500005 1184010
-0.12836288 -0.01462889 0.94033337 3554896
0.11727619 -0.01521905 0.94000036 3684929
0.12507279 -0.015298402 0.94475991 4278356
0.13091429 -0.011737144 0.94800007 5070198
-0.12768781 -0.0055510476 0.94020003 1646630
-0.11817144 -0.00089523813 0.94000006 393473
0.11763429 -0.0091314288 0.94000006 5201523
0.1260037 -0.0075656087 0.94055581 4741742
0.13558829 -0.0050262301 0.94437504 3096925
0.14271471 -0.0024485716 0.94585723 3752538
0.136345 0.0051807854 0.94104344 4739684
0.14450997 0.005543252 0.94324124 4149341
0.15137905 0.0093295248 0.94800013 2639705
-0.10724477 0.012844763 0.94099998 65794
0.13553594 0.015391668 0.94141668 1317159
0.14466445 0.015275205 0.94343984 790036
0.15149944 0.013542858 0.94800007 394522
0.12980953 0.023276191 0.94000006 65794
0.1359667 0.025074838 0.94542307 65793
0.14539646 0.025014699 0.94599998 65793
0.15289629 0.028159717 0.94770002 65796
0.13695964 0.035011064 0.94538891 65798
0.14539105 0.035377894 0.94617379 65793
0.15324573 0.035155717 0.94649994 65793
0.13778771 0.042875912 0.94190007 65806
0.14462596 0.044909839 0.94319993 65794
0.15476477 0.045469187 0.94627267 65793
0.16439906 0.046066258 0.94671422 65794
0.14688791 0.054085117 0.94073707 65793
0.15540412 0.054792684 0.94319987 65793
0.16430284 0.054765943 0.94271976 65793
0.17318657 0.056827139 0.9471001 65793
0.15560219 0.06485869 0.94362062 65793
0.1647684 0.064825915 0.94539988 65793
0.17483355 0.064886451 0.94624996 65793
0.18237714 0.067112386 0.94800007 65793
0.1553859 0.074556194 0.94048035 65796
0.1648605 0.075259589 0.94077802 65794
0.17529091 0.075264595 0.94489288 65793
0.18439017 0.075657465 0.94699997 65793
0.19194745 0.077826291 0.94800007 65793
0.15845715 0.083257154 0.94000006 65793
0.1647238 0.085047647 0.94000047 65794
0.17514358 0.084827863 0.94199979 65793
0.18473345 0.084480569 0.94529021 65793
0.19316392 0.085201226 0.94800007 65793
0.20133716 0.085771434 0.94800007 65793
0.15666668 0.093104765 0.94000006 65793
0.16485171 0.094920814 0.94000036 65793
0.17467153 0.094947942 0.94053364 65793
0.1845841 0.095488936 0.94368744 65793
0.1935104 0.095494151 0.94736844 65793
0.20494859 0.09118858 0.94800007 65794
0.16606668 0.10280319 0.94000024 65793
0.17463176 0.10477899 0.94032031 65793
0.18481144 0.10496572 0.94199985 65793
0.19546066 0.10494656 0.94544435 65793
0.20350404 0.10888457 0.94800007 65793
0.21036573 0.10382858 0.94800007 65793
0.175427 0.11481526 0.94015419 65793
0.1848502 0.114649 0.94154292 65793
0.19494347 0.11490717 0.94386184 65795
0.20283106 0.11430329 0.9471429 65793
0.17700139 0.12303129 0.9400003 65793
0.18525109 0.12509845 0.94064313 65793
0.19537246 0.12484562 0.94465387 65793
0.2016381 0.12308954 0.94800007 65793
0.17922668 0.13553905 0.94000006 65793
0.18564679 0.13487811 0.94066685 65793
0.19516188 0.13489877 0.9443 65793
0.17827174 0.14520761 0.94000036 131329
0.18532766 0.14503855 0.94006711 394250
0.19477467 0.14533965 0.94303429 791317
0.2016381 0.14536002 0.94800007 921103
0.17743622 0.15308572 0.94000006 1709345
0.1853625 0.15491618 0.9402402 2830645
0.1951171 0.15523216 0.94342303 1251873
0.18611041 0.16431911 0.94025028 2568254
0.19474296 0.1651258 0.9422999 1646625
0.18732855 0.17524286 0.9400003 65793
0.19448891 0.17510107 0.94173074 65793
0.18744205 0.18537524 0.94030786 65793
0.18829842 0.19426669 0.94000012 65793
0.18737593 0.20542221 0.94071448 65793
-0.062041912 -0.36130288 0.95800006 2433325
-0.055457052 -0.3613719 0.95770019 2963030
-0.03467048 -0.36130291 0.95800012 1054023
-0.02828381 -0.36130288 0.95800006 3685725
-0.06281393 -0.3542144 0.95800012 1911124
-0.054536212 -0.35459802 0.95587093 1714005
-0.034585625 -0.35406569 0.95570004 3820127
-0.025383959 -0.35391447 0.95736843 3293784
-0.015178703 -0.35242787 0.95800012 3690098
-0.0045619053 -0.35126668 0.95800006 3824749
0.0082114292 -0.35126668 0.95800006 4414091
-0.071035385 -0.34266427 0.95800018 263476
-0.06443876 -0.34440714 0.95707709 264761
-0.05558072 -0.34453136 0.95408332 134714
-0.071165726 -0.33849335 0.95800006 65808
-0.063172072 -0.33616191 0.95760018 66059
-0.055315856 -0.33458936 0.95409685 131855
-0.061129533 -0.32207048 0.95800006 2177117
-0.055468179 -0.32486749 0.95588887 922937
-0.071624003 -0.31146213 0.9568001 2768236
-0.063841842 -0.3138684 0.95564294 2766685
-0.055438358 -0.31505215 0.95281827 1121360
-0.083026677 -0.30260637 0.95800006 330028
-0.07534565 -0.30472666 0.9557693 528460
-0.065698147 -0.30535859 0.95114303 528201
0.071873628 -0.30318087 0.95770007 530233
-0.090325713 -0.29287431 0.95800006 593469
-0.084602371 -0.2943421 0.95786965 200253
-0.075530522 -0.29490438 0.95457697 395316
-0.065692849 -0.29457828 0.95077425 198440
-0.058085717 -0.2918762 0.94999999 67853
0.082376048 -0.29211414 0.9575001 268626
-0.090325713 -0.28831241 0.95800006 199476
-0.08476913 -0.28510565 0.95616674 133939
-0.075452149 -0.28628194 0.95162499 528708
-0.064895809 -0.2865231 0.95122719 528961
-0.057402123 -0.28660843 0.94999993 462638
0.10218666 -0.28101337 0.95800006 267320
-0.082146354 -0.27548328 0.95340008 132395
-0.078352384 -0.27414286 0.94999999 132909
0.12134667 -0.27097717 0.95800006 989786
-0.081201911 -0.2691524 0.95800006 67374
-0.076322518 -0.26471829 0.95400017 132637
-0.081810169 -0.25151306 0.95800006 131608
-0.075089961 -0.25452092 0.95585185 66851
-0.069666676 -0.2542381 0.94999999 132404
-0.093452647 -0.24427329 0.95783353 332104
-0.084777713 -0.24521807 0.95716 330553
-0.075549893 -0.24450444 0.9537918 263709
-0.069214284 -0.24745238 0.95000005 198189
-0.10127429 -0.2308324 0.95800006 593207
-0.095434554 -0.23548324 0.95613343 331325
-0.085873455 -0.23598227 0.95162499 528203
-0.07569842 -0.23795238 0.94999999 921402
0.11479577 -0.23485494 0.95508003 463683
-0.10195858 -0.22467384 0.95800012 199989
-0.095285013 -0.22485922 0.95350003 331839
-0.089571431 -0.22800002 0.95000005 725324
0.11333282 -0.22504087 0.95622236 265251
-0.10225085 -0.21465981 0.95661551 463161
-0.095733792 -0.2152748 0.95274997 265784
0.11383849 -0.21511784 0.95520014 1056084
-0.1103981 -0.20254859 0.95800006 1054543
-0.10456802 -0.2048237 0.95622742 594761
-0.096531369 -0.20613207 0.95107144 265277
0.11573777 -0.20552759 0.95235008 1121624
0.12187391 -0.20275812 0.9564001 1187670
-0.11334668 -0.19501568 0.95428574 398156
-0.10510167 -0.1962354 0.95214981 596046
0.124565 -0.19493042 0.95464993 1188699
0.13047048 -0.19160001 0.95800006 1319516
-0.12065001 -0.18687382 0.95250005 132640
-0.11671429 -0.18909524 0.95000005 266057
0.12605354 -0.18500373 0.95147365 1253469
0.13203439 -0.1842452 0.95611119 1384541
0.13473624 -0.17495538 0.95371449 1186902
-0.12830891 -0.16635081 0.95100009 134698
0.13645424 -0.16439722 0.95369238 1056858
-0.13729548 -0.15589231 0.95258331 791085
0.13689926 -0.15503043 0.95193338 1121877
0.14322132 -0.15382095 0.95672733 858967
0.13720563 -0.14679955 0.95029992 661588
0.14440303 -0.14440408 0.95234495 596047
0.15382409 -0.14305438 0.95672739 859473
0.1668046 -0.14415044 0.95643759 661068
0.17218277 -0.14306423 0.95544446 859484
0.14928573 -0.13842857 0.95000005 598103
0.15580125 -0.13566773 0.95220011 532050
0.165086 -0.1352872 0.95334494 792124
0.17247553 -0.13645431 0.95242864 532563
0.15652382 -0.12938097 0.95000005 467290
0.16543233 -0.12587033 0.9503215 661834
0.17198701 -0.12444589 0.94999993 727891
0.16838625 -0.11510583 0.94999993 1119825
0.17366669 -0.11452383 0.94999999 464720
0.18004762 -0.11309525 0.95000005 264488
0.16841498 -0.10378913 0.94999999 332096
0.17391099 -0.10475571 0.95000011 463936
0.18004762 -0.10495238 0.95000005 462121
0.1680824 -0.095267534 0.95090002 132646
0.17497115 -0.095223032 0.95150012 331585
0.18027507 -0.095116578 0.95120013 923183
0.14928573 -0.081428573 0.95000005 65817
0.15508798 -0.084409297 0.95423532 65796
0.16581933 -0.086951375 0.95550007 65809
0.17346473 -0.0880244 0.95438468 329790
0.13842857 -0.071476191 0.95000005 65808
0.14599408 -0.074304029 0.95277786 66056
0.1511116 -0.075551599 0.95583344 66051
0.13741034 -0.065461323 0.95161545 395822
0.14372088 -0.065077864 0.95458335 330293
0.13842857 -0.058809526 0.95000005 725553
0.14505336 -0.056276493 0.95221066 856907
0.15431015 -0.053302247 0.95550013 728396
0.16098572 -0.050023809 0.95500004 792910
0.14928573 -0.04071429 0.95000005 133666
0.15507768 -0.044974059 0.95132017 463425
0.16301708 -0.044904109 0.95623088 593723
0.13684738 -0.031368811 0.95475006 1183495
0.14928573 -0.038904764 0.95000005 132887
0.15533315 -0.039060384 0.95380002 197912
0.16215096 -0.039170954 0.95650005 197394
0.12938096 -0.021714287 0.95000005 659735
0.13339688 -0.025026148 0.95400006 1512723
0.13482296 -0.015067169 0.95410538 4871007
0.13690859 -0.0099733351 0.95200008 5004922
0.14581434 -0.0055403705 0.95161122 3160679
0.15384293 -0.003756369 0.95581257 3819364
0.14928573 0.00090476195 0.95000005 4610403
0.15538593 0.004812784 0.95280761 4017758
0.15625837 0.015619459 0.95414299 131847
0.1378254 0.025031749 0.95000005 65796
0.14486244 0.025835982 0.94999993 65793
0.15568438 0.02392086 0.95149994 65795
0.16413215 0.025428303 0.95364285 65793
0.13842857 0.033476193 0.95000005 65805
0.14204763 0.032571428 0.95000005 65793
0.15833335 0.035285715 0.94999999 65793
0.1646589 0.035364322 0.95217854 65796
0.15742858 0.04071429 0.95000005 131329
0.16629525 0.042704768 0.94999993 65796
0.17498355 0.04532842 0.9519667 65793
0.175559 0.054295897 0.95018739 65793
0.18479507 0.054959938 0.95303684 65793
0.18632874 0.064674497 0.95087516 65794
0.18676873 0.073027223 0.94999999 65793
0.19581795 0.074279375 0.95169586 65793
0.19791666 0.084934533 0.94999987 65793
0.20570919 0.085097305 0.95093101 65794
0.19769049 0.09439683 0.94999993 65793
0.20538098 0.095150791 0.95000017 65793
0.21516535 0.095081404 0.95292306 65793
0.19995239 0.10042857 0.95000005 65793
0.20567045 0.10412 0.95000011 65793
0.21501395 0.10517327 0.95142871 65793
0.20790851 0.11526779 0.95027268 65793
-0.094131425 -0.36400121 0.96899998 1781051
-0.085935622 -0.36316457 0.96652931 2105909
-0.0756175 -0.36226487 0.96237522 460596
-0.066812389 -0.36243433 0.96100008 3225671
-0.02354455 -0.36300912 0.96333337 1971776
-0.014694603 -0.36277497 0.96433342 3951726
-0.0045958105 -0.36310059 0.96519995 1714522
0.0045906673 -0.36272484 0.96420008 1321303
0.015210817 -0.36303815 0.96364307 790341
0.02484229 -0.36339962 0.96600002 3758739
0.034350794 -0.36329815 0.96899998 3487073
-0.092924759 -0.35576704 0.96860003 1910088
-0.084614798 -0.35521415 0.96663618 2438478
-0.074060284 -0.3552053 0.96262962 2765125
-0.067234799 -0.35630924 0.9610002 3690327
-0.022514859 -0.35822418 0.96100008 2302258
-0.0141526 -0.3565073 0.9611541 3886192
-0.0046700961 -0.35520706 0.96150017 2765397
0.0041602599 -0.35464704 0.96109116 3159643
0.013446961 -0.35799894 0.9610002 1183817
0.025356328 -0.35509169 0.96223813 1518157
0.034756914 -0.35508692 0.96539986 792390
0.044973813 -0.35257241 0.96699995 859737
0.053987142 -0.35253143 0.96899998 4872815
-0.092839427 -0.34570235 0.96899998 987957
-0.085795864 -0.34470889 0.96633309 330035
