# .PCD v0.7 - Point Cloud Data file format
VERSION 0.7
FIELDS x y z rgba
SIZE 4 4 4 4
TYPE F F F U
COUNT 1 1 1 1
WIDTH 1180
HEIGHT 1
VIEWPOINT 0 0 0 1 0 0 0
POINTS 1180
DATA ascii
0.077699326 0.27739239 0.94085717 65793
0.081466675 0.27752382 0.94000006 65793
0.20805183 0.27722135 0.94080013 65793
0.21082859 0.27721715 0.94200009 65793
-0.16932002 0.28220129 0.94066668 65793
0.07870134 0.28164306 0.94120008 65793
0.082182862 0.28235814 0.94000006 65793
0.086480014 0.28307429 0.94000006 65793
0.20825383 0.28259856 0.94050002 66049
0.21082857 0.28170288 0.94200003 66049
-0.16932002 0.28757399 0.94066668 65793
0.082836196 0.28678668 0.94200009 65793
0.08691895 0.28764361 0.94088894 65793
0.090419047 0.28737146 0.94000006 65793
0.20859049 0.28737146 0.94000006 66049
0.21082857 0.28888002 0.94200003 66049
-0.17135429 0.29246858 0.94200003 65793
-0.1692 0.29274291 0.94000006 65793
0.087306283 0.2920408 0.94119996 65793
0.091135241 0.29310098 0.94000006 65793
0.20769525 0.29274288 0.94000006 65793
0.21082857 0.29157144 0.94200003 66049
-0.17123303 0.29674286 0.94133341 65793
-0.1692 0.2981143 0.94000006 65793
-0.0071619051 0.29990479 0.94000006 1382162
0.088817142 0.29695427 0.94200003 65793
0.092520282 0.29778343 0.94057149 65793
0.095790491 0.2981143 0.94000006 65793
0.20791715 0.29753432 0.9410001 65793
-0.17162095 0.30246383 0.94100004 65793
-0.1692 0.30259049 0.94000006 65793
-0.0068634925 0.30229208 0.94000006 2171914
0.092764571 0.30197832 0.94200003 65793
0.095790483 0.30259049 0.94000006 65793
0.2081406 0.3024385 0.94119996 65793
-0.17192648 0.30710059 0.94120008 65797
-0.1692 0.30796191 0.94000006 65796
0.0942 0.30682287 0.94200003 65793
0.096547425 0.30755621 0.94040006 65793
0.2081406 0.30710059 0.94120008 65793
0.21082857 0.30861717 0.94200003 65793
-0.17123303 0.31288254 0.94133341 65793
-0.1692 0.31243813 0.94000006 65793
-0.012533334 0.31422859 0.94000006 1705747
0.097663246 0.31270403 0.94080013 65793
0.20814288 0.31288573 0.94000006 65793
0.21082857 0.31220573 0.94200003 66049
-0.17135429 0.31669143 0.94200003 65793
-0.16884239 0.31797856 0.94050002 65793
-0.016711112 0.31780955 0.94000006 65794
-0.012546667 0.3172524 0.94100004 2364682
0.098914288 0.31706542 0.94133341 65793
0.10175874 0.31840637 0.94000006 65793
0.20692684 0.31800219 0.94057149 65793
-0.17135429 0.32207429 0.94200003 65793
-0.16826974 0.32309714 0.94080001 65793
-0.016622435 0.32281208 0.94066674 852238
-0.012739429 0.32171544 0.94200003 3090955
0.099582858 0.32028002 0.94200003 65793
0.10301389 0.32337689 0.94057149 65793
0.2058984 0.32244447 0.94133341 65793
-0.16787048 0.32767135 0.94114292 65793
-0.025961906 0.3285524 0.94000006 65793
-0.022977781 0.32795557 0.94000006 65793
-0.015219049 0.3267619 0.94000006 3017757
-0.013457143 0.32566288 0.94200003 2696970
0.10282014 0.32767129 0.94114286 65793
0.10653334 0.32765716 0.94000006 65793
0.20544571 0.32745716 0.94200009 65793
-0.16705117 0.33269203 0.94085723 65793
-0.026409525 0.33258098 0.94000006 65793
-0.022617143 0.33253473 0.94050008 65795
-0.018800002 0.33302858 0.94000006 66061
0.10395715 0.33248669 0.94099998 65793
0.10742858 0.33213335 0.94000006 65793
0.11011429 0.33392382 0.94000006 196865
0.20598896 0.33291546 0.94120008 65793
-0.16669239 0.33696765 0.94099998 65793
-0.16338095 0.33795238 0.94000006 65793
-0.032765716 0.33857909 0.94000006 65793
-0.027770795 0.33684826 0.94066668 65793
-0.022428572 0.33642858 0.94200009 196866
-0.018840002 0.33732572 0.94200003 1510153
0.10436763 0.33702669 0.94200009 65793
0.10765295 0.33729032 0.94040006 655617
0.1101143 0.3375048 0.94000006 1966337
0.20680001 0.33660954 0.94000006 66049
-0.16656953 0.34061524 0.94200009 65793
-0.16221175 0.34234509 0.9410001 65793
-0.15845715 0.34466669 0.94000006 65793
-0.040882543 0.3440699 0.94000006 65793
-0.037327625 0.34252256 0.94066668 65793
-0.033642858 0.34226 0.94200003 65793
-0.029007619 0.34061524 0.94200009 65793
0.10496572 0.34001714 0.94200003 65793
0.10795619 0.34181142 0.94200009 65793
0.11118858 0.34251809 0.94000006 65793
0.20724002 0.34181142 0.94200009 65793
-0.16118668 0.34599811 0.94200009 65793
-0.1573759 0.3472997 0.94066668 65793
-0.042487238 0.3476164 0.94120008 65793
-0.038577143 0.34629714 0.94200003 65793
0.10855429 0.34540001 0.94200003 65793
0.1117494 0.34728467 0.94085717 65793
0.20668238 0.34701002 0.94150007 66049
-0.15700001 0.35257718 0.94200009 65793
-0.1548762 0.35093334 0.94000006 65793
-0.04344143 0.35156715 0.94050002 65793
0.11295937 0.3523283 0.94133341 65794
0.11548572 0.35272384 0.94000006 65793
0.20735857 0.35246429 0.94050002 65793
-0.15773049 0.35758191 0.94100004 65793
-0.047048572 0.35892379 0.94100004 65793
-0.043866668 0.35540953 0.94000006 65793
0.11304 0.35795999 0.94200003 65793
0.11620191 0.3575581 0.94000006 65793
0.20776924 0.35732603 0.94033337 65798
0.21142605 0.35745209 0.94066679 65798
-0.1587943 0.36244571 0.94200003 65793
-0.051950954 0.3627643 0.94050002 65793
-0.048445717 0.36154857 0.94200003 65793
0.11393715 0.36244571 0.94200003 65793
0.11756143 0.36254004 0.94050002 65793
0.20746857 0.36250857 0.94100004 66049
0.21262287 0.3615486 0.94200009 65807
-0.16058858 0.36693144 0.94200003 65793
-0.1587943 0.36513716 0.94200003 65793
-0.05735524 0.36922956 0.94100004 65793
-0.054667622 0.36743906 0.94100004 65793
0.11739952 0.3674376 0.94100004 65793
0.12130477 0.3683905 0.94000006 65793
0.20688878 0.36774135 0.94040006 65793
0.21306923 0.367567 0.94133341 65794
0.21664762 0.36883813 0.94000006 65795
-0.059147622 0.3728143 0.94100004 65793
0.11842286 0.37141716 0.94200003 65793
0.12273334 0.37268323 0.94066668 65795
0.2081406 0.37235621 0.94120008 65793
0.21239857 0.3725386 0.94199997 65793
0.21680954 0.37291241 0.94200009 66049
-0.16058858 0.3768 0.94200003 65793
-0.060662858 0.37683305 0.94133341 65793
0.12373952 0.37660047 0.94150007 65793
0.12742224 0.37749207 0.94000006 65793
0.2078743 0.37689528 0.94000006 65793
0.21257313 0.377608 0.94177777 65793
0.21621142 0.3768 0.94200003 65793
-0.16597143 0.38487428 0.94200003 65793
-0.16334794 0.38134289 0.94066668 65793
-0.061260954 0.38280892 0.94133341 65793
0.12822238 0.38153192 0.94150007 65793
0.13139367 0.38313526 0.94066679 65793
0.20859049 0.3822667 0.94000006 66049
0.21142666 0.38188383 0.94200009 65793
-0.16693144 0.38791305 0.94066668 65793
-0.06535238 0.38942859 0.94000006 65793
-0.063697144 0.38846287 0.94200003 65793
0.13212533 0.38777336 0.94120008 65793
0.20881239 0.38715523 0.94100004 66305
0.21082857 0.38666859 0.94200003 66569
-0.16848478 0.39253145 0.94099998 65793
-0.066640012 0.3923721 0.94133341 65793
0.13278629 0.39226747 0.94080013 65793
0.13518095 0.39390481 0.94000006 65793
0.20881239 0.39252955 0.94099998 66049
-0.1690224 0.39767098 0.94150007 65793
-0.069080003 0.39743429 0.94200003 65793
0.13307619 0.39743432 0.94200009 65793
0.13577777 0.39778417 0.94000006 65793
0.20859049 0.39748573 0.94000006 66049
-0.16932002 0.40224573 0.94066668 65793
0.13622001 0.40238959 0.94099998 65793
0.21127747 0.40193528 0.94133341 65793
-0.17135429 0.40820003 0.94200009 65793
-0.1692 0.40733334 0.94000006 65793
0.13786249 0.40821144 0.94120008 65793
-0.17099048 0.41180956 0.94000006 65793
-0.1692 0.41360003 0.94000006 65793
0.13826224 0.41180259 0.94066668 65793
-0.17126334 0.41784525 0.94150007 65793
-0.1692 0.41628575 0.94000006 65793
-0.074304767 0.41807622 0.94000006 65793
0.13898334 0.41784525 0.94150007 65793
0.22159429 0.4189657 0.94200003 65793
-0.17117238 0.42300284 0.94100004 65793
-0.072668575 0.42076001 0.94200003 65793
0.13890952 0.42300284 0.94100004 65793
0.22741398 0.42225397 0.94133341 65796
0.2310143 0.42300287 0.94200003 65801
-0.17135429 0.42614287 0.94200003 65793
0.13905714 0.42614287 0.94200003 65793
0.22739048 0.42523813 0.94000006 66049
0.23146287 0.42614287 0.94200003 65795
-0.051462859 -0.34579429 0.94800007 266554
-0.04875429 -0.34579429 0.94800007 267585
-0.055676192 -0.34158096 0.94800013 68125
-0.052365717 -0.34218287 0.94800007 69159
-0.047851432 -0.34218287 0.94800007 134719
-0.042660005 -0.34195715 0.94800001 266822
-0.037378289 -0.34109947 0.94800007 201291
-0.03250286 -0.34037715 0.94800007 266074
-0.01625143 -0.34037715 0.94800007 396106
-0.012640001 -0.34128001 0.94800007 396601
-0.0099314293 -0.34128001 0.94800007 267085
0.0090285726 -0.34037715 0.94800007 396611
0.011737144 -0.34037715 0.94800007 1186910
-0.055977143 -0.3376686 0.94800007 66853
-0.052365717 -0.3376686 0.94800007 67363
-0.047851436 -0.33766863 0.94800007 67372
-0.042412858 -0.33749101 0.94750011 134196
-0.036977146 -0.33731338 0.94700015 134472
-0.03250286 -0.3376686 0.94800007 200276
-0.027988574 -0.33676574 0.94800013 267600
-0.02257143 -0.33676574 0.94800013 332620
-0.016793145 -0.33748803 0.94800007 463192
-0.012640001 -0.3376686 0.94800007 725824
-0.0093295258 -0.33796954 0.94800013 529736
0.008125715 -0.33721718 0.94800007 331075
0.01264 -0.3376686 0.94800007 1777225
0.015348572 -0.33676574 0.94800007 1185091
-0.060491435 -0.33134857 0.94800007 265774
-0.056860004 -0.33303776 0.9476667 265009
-0.052365717 -0.33315432 0.94800007 133165
-0.047851432 -0.33315432 0.94800007 132893
-0.042405717 -0.33291942 0.94733346 265763
-0.036900003 -0.33210003 0.94500011 134452
-0.032400001 -0.33210003 0.94500011 134725
-0.027900001 -0.33210003 0.94500011 464201
-0.022507304 -0.33221781 0.94533336 398411
-0.01712 -0.33245146 0.9460001 331853
-0.012600003 -0.33210003 0.94500011 398400
-0.0083746947 -0.33233798 0.94714296 464446
-0.0023474291 -0.33207086 0.94800007 266301
0.0029342859 -0.33292857 0.94800001 594500
0.0081165088 -0.33280414 0.94700009 200495
0.012633811 -0.33297956 0.94750011 533581
0.015799999 -0.33270288 0.94800007 596540
-0.061093342 -0.32713526 0.94800013 462125
-0.056654289 -0.32751143 0.94800001 462399
-0.052365717 -0.32773718 0.94800007 201019
-0.048040714 -0.32770288 0.94725001 200500
-0.042322382 -0.32777387 0.94550014 330793
-0.036900003 -0.32760003 0.94500011 133929
-0.032400001 -0.32760003 0.94500005 68664
-0.027900001 -0.32760003 0.94500011 266049
-0.022500001 -0.3276 0.94500011 265798
-0.017100001 -0.32760003 0.94500011 527435
-0.012600001 -0.3276 0.94500005 331850
-0.007892143 -0.32770285 0.94725001 266812
-0.0027085717 -0.32773715 0.94800007 200251
0.0027085717 -0.32773718 0.94800007 331327
0.0078514284 -0.32765883 0.94628584 134184
0.012600001 -0.3276 0.94500005 266558
0.017367857 -0.32770288 0.94725007 466005
0.020765714 -0.32683432 0.94800007 531548
-0.066992007 -0.32159775 0.94800007 395835
-0.062297147 -0.32232004 0.94800007 396595
-0.057395924 -0.32257801 0.94800007 266300
-0.052872576 -0.32283831 0.94740009 396609
-0.04746531 -0.32273227 0.94542873 397632
-0.042300001 -0.3231 0.94500011 201536
-0.036900003 -0.3231 0.94500011 266034
-0.032400001 -0.32310003 0.94500011 135217
-0.027900001 -0.3231 0.94500011 69422
-0.022500003 -0.32310003 0.94500011 199743
-0.017100001 -0.3231 0.94500011 331081
-0.013050001 -0.32355002 0.94500005 266051
-0.0077399998 -0.32274002 0.94500011 462394
-0.0024436736 -0.32210577 0.94585729 396857
0.0027053971 -0.32209274 0.94733334 331576
0.0078774998 -0.32277679 0.94537508 133664
0.012600001 -0.324 0.94500005 199220
0.017110001 -0.32297099 0.94550008 333648
0.020765714 -0.32232004 0.94800013 336211
-0.071325719 -0.31690288 0.94800007 133182
-0.067714289 -0.31690285 0.94800007 132912
-0.062297154 -0.31690285 0.94800007 67110
-0.057646435 -0.31705216 0.94575012 67887
-0.053099997 -0.31770003 0.94500011 331320
-0.047700003 -0.3177 0.94500011 332350
-0.042300005 -0.31769997 0.94500011 203075
-0.036675002 -0.31792501 0.94500011 593970
-0.032400001 -0.3186 0.94500005 266544
-0.027900001 -0.31769997 0.94500011 134452
-0.022500003 -0.31770003 0.94500011 199738
-0.018000001 -0.3177 0.94500011 199494
-0.0069000004 -0.31890002 0.94500005 265531
-0.0024760715 -0.31762609 0.94612509 266816
0.0027085715 -0.31780571 0.94800007 201280
0.0081057139 -0.31747308 0.94585729 68647
0.018000001 -0.3177 0.94500011 1185355
0.022337504 -0.3165518 0.94762504 924240
0.027085718 -0.31509715 0.94800007 728917
-0.076742865 -0.3123886 0.94800007 67356
-0.073131435 -0.31220803 0.94800007 66591
-0.067714289 -0.31238863 0.94800007 131862
-0.062231429 -0.31206006 0.94700015 131853
-0.057600003 -0.31230003 0.94500011 66581
-0.053099997 -0.3123 0.94500011 132389
-0.047700003 -0.3132 0.94500011 68401
-0.042900003 -0.31350002 0.94500005 135479
-0.027000001 -0.3132 0.94500005 202054
-0.022500001 -0.3132 0.94500011 266041
-0.018900001 -0.3132 0.94500005 330301
-0.0018000001 -0.31230003 0.94500005 266551
0.0027000003 -0.31230003 0.94500011 135478
0.0075857141 -0.31255716 0.94500017 68896
0.018000001 -0.31230003 0.94500011 659782
0.02257143 -0.3123886 0.94800007 463949
0.027085718 -0.3123886 0.94800007 530519
-0.092091434 -0.3060686 0.94800007 854587
-0.085771434 -0.3060686 0.94800007 394545
-0.082160011 -0.3060686 0.94800013 263203
-0.077465147 -0.30751318 0.94800007 133153
-0.073081285 -0.3076584 0.94733334 132130
-0.067619689 -0.30744258 0.94666672 262951
-0.062100001 -0.30689999 0.94500011 197395
-0.058050003 -0.30735001 0.94500005 131594
-0.052200004 -0.30599999 0.94500005 65812
-0.049500003 -0.30690002 0.94500005 66074
-0.00090000004 -0.3087 0.94500005 265537
0.0029571434 -0.30741429 0.94500017 199735
0.0081000002 -0.30689999 0.94500011 132902
0.013500001 -0.30689999 0.94500005 131877
0.018000001 -0.30690002 0.94500011 199484
0.02257143 -0.30787432 0.94800007 527427
0.027472656 -0.30761638 0.94800007 660298
0.031600002 -0.3060686 0.94800007 792399
-0.096605718 -0.30245715 0.94800007 199732
-0.092478372 -0.30245715 0.94800007 266570
-0.087061234 -0.30219921 0.94800007 399436
-0.082160003 -0.30245715 0.94800007 464967
-0.077777721 -0.30262688 0.94740003 464717
-0.072978102 -0.30272099 0.9460001 528451
-0.067573339 -0.30272004 0.9460001 659524
-0.062100001 -0.30240005 0.94500011 527921
-0.057600003 -0.30240002 0.94500005 461350
-0.053100001 -0.30240005 0.94500011 263723
0.0045000003 -0.30330002 0.94500005 199196
0.00765 -0.30240002 0.94500005 329770
0.012900001 -0.30210003 0.94500005 263986
0.017460002 -0.30222005 0.94500011 263995
0.022556828 -0.30224383 0.94733334 462142
0.027988574 -0.30245715 0.94800007 593992
0.032322288 -0.30209598 0.94800007 725839
0.035211433 -0.30065143 0.94800007 857176
-0.09247838 -0.29704005 0.94800007 66336
-0.087756746 -0.2972874 0.9471429 133941
-0.081944287 -0.29715765 0.94550008 331336
-0.077100009 -0.29850003 0.94500005 1121115
-0.072900005 -0.29880005 0.94500011 727381
-0.06750001 -0.29880005 0.94500011 726867
-0.062100001 -0.29898 0.94500011 595533
-0.057600003 -0.29880002 0.94500005 660290
-0.0537 -0.29850003 0.94500011 397376
0.0081000002 -0.29790002 0.94500011 264761
0.012614287 -0.29821432 0.9460001 395066
0.017136669 -0.29762623 0.94699997 460849
0.022571431 -0.29704005 0.94800007 396850
0.028203929 -0.29714823 0.94762504 528197
0.03250286 -0.29704005 0.94800007 724048
0.03611429 -0.29704005 0.94800007 726102
0.041531432 -0.29523432 0.94800007 595801
-0.092091434 -0.29252574 0.94800007 65801
-0.087145723 -0.29250646 0.94575006 65822
-0.083700001 -0.29250002 0.94500005 131627
0.0087000001 -0.29370004 0.94500005 331064
0.012600001 -0.29340002 0.94500005 461368
0.017100001 -0.29160005 0.94500011 526895
0.022545716 -0.2922172 0.94700003 199215
0.027642857 -0.29198572 0.94500017 331077
0.032400001 -0.29160002 0.94500005 461903
0.036656003 -0.29270631 0.94800007 528722
0.040628575 -0.29252574 0.94800007 398167
-0.091995239 -0.2877067 0.94700003 65795
-0.088200003 -0.28710005 0.94500011 131329
0.018204002 -0.28782573 0.94620007 461863
0.022545716 -0.28770763 0.94700009 396589
0.028124999 -0.28687501 0.94500011 198954
0.032451905 -0.28755385 0.94650006 525885
0.036485307 -0.28762251 0.94757146 853819
0.040628575 -0.28620574 0.94800007 395836
-0.091790482 -0.28379813 0.94800013 65794
-0.087630361 -0.28225893 0.94612509 65795
0.022860002 -0.28278002 0.94500011 791882
0.029100001 -0.28290004 0.94500005 463671
0.032400001 -0.28260002 0.94500005 397625
0.037275106 -0.28311023 0.94800007 725056
0.042208575 -0.2823686 0.94800001 527938
0.046948574 -0.2807886 0.94800007 397635
-0.086506538 -0.27756613 0.94757152 65803
-0.083250001 -0.27765 0.94500005 65799
0.023400001 -0.27990001 0.94500005 1121366
0.032579999 -0.27846003 0.94500011 728148
0.036705717 -0.27809501 0.94575012 793943
0.04243429 -0.27717716 0.94800007 729427
0.046768006 -0.27717718 0.94800007 532049
-0.085771434 -0.27266288 0.94800007 65803
-0.082158215 -0.27258322 0.94537514 65796
0.037800003 -0.27450001 0.94500005 730731
0.042391431 -0.27327716 0.94700003 732254
0.047801908 -0.27237624 0.94700003 992360
0.052064769 -0.27236193 0.94800013 1058393
0.055977143 -0.27176002 0.94800007 1255254
-0.09118858 -0.26634288 0.94800007 131343
-0.087577157 -0.26792288 0.94800001 65795
-0.082452253 -0.26767918 0.94542873 65794
0.048600003 -0.26910001 0.94500005 1253983
0.053100005 -0.26820001 0.94500005 1123930
0.057150956 -0.26861003 0.94749999 1385053
0.062580578 -0.26708803 0.94680005 1319266
0.068075441 -0.26706517 0.94800007 993631
0.073693819 -0.26740623 0.94750011 1256286
0.077522859 -0.26862717 0.94650006 1387364
0.081696004 -0.26889259 0.94680017 1387623
0.086282864 -0.26846763 0.94700003 1584472
0.093178861 -0.26655945 0.94620001 1255261
0.097863436 -0.26655945 0.94620007 1125208
0.10202287 -0.26724574 0.94800007 863565
-0.096605718 -0.2618286 0.94800007 198684
-0.092958227 -0.26240253 0.94762498 198431
-0.08736223 -0.26208603 0.94566673 131867
-0.083100006 -0.26310003 0.94500005 66058
0.063900001 -0.26370001 0.94500005 1517664
0.06750001 -0.26370001 0.94500005 1059934
0.071100004 -0.26370001 0.94500005 798058
0.0999 -0.26370001 0.94500005 1189709
0.10265477 -0.26203951 0.94550008 991302
0.1068381 -0.26212955 0.94800007 662866
-0.10563429 -0.2555086 0.94800007 67381
-0.10238401 -0.25659201 0.94800007 264232
-0.097432151 -0.25801358 0.94725001 395555
-0.093178861 -0.25790802 0.94620007 461871
-0.089100003 -0.25830004 0.94500005 200501
0.1035 -0.25740004 0.94500005 595020
0.10721429 -0.25754002 0.94800001 398411
0.11105144 -0.25731429 0.94800007 530765
-0.10608573 -0.25144574 0.94800007 132412
-0.10310628 -0.25225833 0.94800007 67389
-0.098325007 -0.25312504 0.94500011 134183
-0.094500005 -0.25470003 0.94500005 199728
0.099000007 -0.25110003 0.94500005 68140
0.10281809 -0.25163049 0.94700003 68143
0.10653715 -0.25370288 0.94800007 200258
-0.10653715 -0.24738288 0.94800007 66869
-0.10248572 -0.24729715 0.94560015 67625
-0.0999 -0.2484 0.94500005 68637
0.094500005 -0.24570002 0.94500005 131340
0.097991079 -0.24801821 0.94612509 132113
0.10202286 -0.24738288 0.94800007 67083
-0.10732794 -0.24261366 0.94700009 66607
-0.10278 -0.24246001 0.94500011 67645
0.094500005 -0.2421 0.94500005 131853
0.097508579 -0.24377143 0.94800007 66060
0.10081905 -0.24407241 0.94800013 131848
-0.11150287 -0.23700002 0.94800007 65825
-0.10831829 -0.23735945 0.94620007 65817
-0.1035 -0.23850001 0.94500005 328999
0.094500005 -0.23760001 0.94500005 725830
0.096605718 -0.23564574 0.94800007 927057
-0.11105144 -0.2320343 0.94800013 131343
-0.10870929 -0.23275071 0.94725001 196883
0.094500005 -0.23400001 0.94500005 600409
0.097432151 -0.23275357 0.94725001 1059415
0.10021715 -0.23113143 0.94800007 1191255
-0.11105144 -0.22752002 0.94800007 131335
-0.10924572 -0.22752002 0.94800007 196870
0.099000007 -0.22860001 0.94500005 1060699
0.10276429 -0.22715858 0.94650006 1061215
-0.11150287 -0.2225543 0.94800007 66054
-0.10901525 -0.22253716 0.9460001 65798
0.1035 -0.22410001 0.94500005 1257317
0.10636858 -0.2226543 0.94650006 1257318
-0.11189573 -0.21747476 0.94749999 65797
-0.10890001 -0.21690002 0.94500005 131334
0.10907286 -0.21814716 0.94650006 1322346
0.11207858 -0.21664429 0.94650006 1650283
-0.11235543 -0.21226287 0.94680005 66052
-0.10890001 -0.2124 0.94500005 65795
0.11430001 -0.2124 0.94500005 602475
0.11646858 -0.21126857 0.94800007 929379
-0.11707049 -0.20735621 0.94800013 66562
-0.11232036 -0.20775752 0.94537508 66052
-0.10890001 -0.20790002 0.94500005 262659
0.11430001 -0.20790002 0.94500005 1191521
0.11646858 -0.20765716 0.94800007 1453408
-0.12098287 -0.20314287 0.94800007 592933
-0.11754532 -0.20252003 0.94628584 132626
-0.1137 -0.20310001 0.94500005 66310
0.11740344 -0.20324802 0.94680005 1388135
0.12008001 -0.20133716 0.94800007 1517932
-0.12675215 -0.19621643 0.94725001 335189
-0.12265829 -0.1975863 0.94560003 793162
-0.11835001 -0.19845 0.94500005 200493
0.11880001 -0.19890001 0.94500005 1584491
0.12235906 -0.19751716 0.94700003 2240109
0.12678173 -0.19278745 0.94680005 1585265
0.13091429 -0.19140571 0.94800007 1519224
0.1287 -0.1899 0.94500005 1715829
0.13219315 -0.18737601 0.94680005 1388403
0.1372343 -0.18508573 0.94800007 863078
0.15348572 -0.18508573 0.94800007 1060194
0.13410001 -0.18450001 0.94500005 864100
0.13860001 -0.18270001 0.94500005 1125479
0.14340097 -0.18248668 0.94700003 994413
0.14749929 -0.18223357 0.94725013 1191531
0.15219544 -0.182096 0.94560015 1124964
0.15570001 -0.18090001 0.94500005 1059176
-0.14265144 -0.1625143 0.94800007 66050
-0.13972144 -0.16225573 0.94650006 65795
-0.14536001 -0.1561943 0.94800007 65794
-0.14265144 -0.15800002 0.94800007 66055
-0.13916072 -0.15762644 0.94575 66067
-0.1467143 -0.1530343 0.94800007 786691
-0.14298786 -0.15199715 0.94575012 65795
-0.13950001 -0.153 0.94500005 65804
-0.13775513 -0.10682858 0.9471429 65794
-0.13452573 -0.10924572 0.94800007 65794
-0.14235049 -0.10202287 0.94800013 131337
-0.13814859 -0.10284572 0.94560003 131330
-0.14596193 -0.097809538 0.94800013 65795
-0.14229143 -0.097924583 0.94680005 65799
-0.13950001 -0.098100007 0.94500005 65798
-0.14536001 -0.09480001 0.94800007 65795
-0.14235049 -0.094198108 0.94800013 65799
-0.13950001 -0.092700005 0.94500005 65817
0.16200002 -0.090900004 0.94500005 398916
-0.13832459 -0.088187434 0.94680005 131339
0.15946859 -0.08739239 0.9460001 330551
0.16161144 -0.089382865 0.94800007 464190
-0.13667502 -0.081645004 0.94725013 196867
0.15946859 -0.081986666 0.9460001 726604
-0.13760345 -0.077366859 0.94680005 65802
0.15930001 -0.076500006 0.94500005 993395
0.16161144 -0.077645719 0.94800007 730464
-0.14536001 -0.071325719 0.94800007 131336
-0.14235049 -0.071927629 0.94800013 65793
-0.1388205 -0.073017627 0.94650006 131332
0.16380002 -0.073800005 0.94500005 797018
0.1688343 -0.071325719 0.94800007 1387096
0.17786288 -0.071325719 0.94800013 2441835
-0.14626287 -0.06861715 0.94800007 65794
-0.14310002 -0.067800008 0.94500011 65794
-0.13950001 -0.069300003 0.94500005 131330
0.17247944 -0.068668008 0.94620007 1453405
0.17758146 -0.068510011 0.94650006 1718888
0.18118715 -0.068510011 0.94650006 2377342
-0.14669999 -0.063900001 0.94500005 66049
-0.14897144 -0.055074289 0.94800007 132103
-0.15077715 -0.052365717 0.94800007 66055
-0.1485 -0.052200004 0.94500005 131335
0.17211942 -0.052446287 0.94620007 1514791
-0.15077715 -0.047851428 0.94800013 65801
-0.14881429 -0.047799051 0.94700003 65799
0.16380002 -0.046800002 0.94500005 2500136
0.16692288 -0.047458861 0.94740009 2498860
0.17064001 -0.049657144 0.94800007 2368029
-0.14806858 -0.04243429 0.94800007 395786
-0.14361429 -0.042042863 0.94500017 396292
0.15930001 -0.0405 0.94500005 2891591
0.16234383 -0.042388573 0.94700003 3355180
-0.14265063 -0.037173063 0.94542873 856071
-0.13950001 -0.036000002 0.94500005 987906
0.15930001 -0.037800003 0.94500005 3750721
0.16223145 -0.036633715 0.94740009 5201521
-0.14242715 -0.032451428 0.94650006 1120265
-0.13950001 -0.033300001 0.94500005 1054469
0.15930001 -0.033300001 0.94500005 5793164
0.1621293 -0.032426428 0.94575012 6385546
-0.14235145 -0.027930476 0.9460001 1446670
0.16380002 -0.028800001 0.94500005 6714509
0.16702859 -0.02618286 0.94800007 6846866
-0.14626287 -0.021668572 0.94800007 1644052
-0.14310001 -0.023400001 0.94500005 1642777
0.16856715 -0.023438573 0.94650006 6715538
0.17064001 -0.020765714 0.94800007 6714766
-0.15077715 -0.015348572 0.94800007 1122601
-0.14779487 -0.016783429 0.94740003 1582105
-0.14490001 -0.018000001 0.94500005 1910030
0.17217429 -0.017577143 0.94650006 3957628
0.17786287 -0.015348572 0.94800007 3029085
-0.15077715 -0.012640001 0.94800007 1055526
-0.1485 -0.012600001 0.94500005 1186857
0.17817217 -0.013082144 0.94725013 4019573
0.1814743 -0.011737144 0.94800007 5730430
-0.15211786 -0.007887857 0.94650006 394249
0.17910001 -0.0089999996 0.94500005 5928574
0.18208173 -0.0077605718 0.94740009 6189440
-0.1532443 -0.002704286 0.94650006 923152
0.18209001 -0.002704286 0.94650006 5597043
-0.1561943 0.0027085717 0.94800013 1054995
-0.15318 0.0023400001 0.94500011 858392
0.17910001 0.0036000002 0.94500005 1382989
0.18209001 0.0027042858 0.94650006 2699085
-0.15701479 0.0081204772 0.94750011 1251871
-0.15390001 0.0081000002 0.94500005 1054479
0.17910001 0.0089999996 0.94500005 197121
0.18178216 0.0076692863 0.94725013 66049
-0.15709716 0.012640001 0.94800007 460566
-0.153 0.012600001 0.94500005 263429
0.17910001 0.011700001 0.94500005 66305
0.1814743 0.012640001 0.94800007 66305
-0.15661888 0.01711943 0.94620007 65797
-0.15390001 0.0162 0.94500005 65793
0.18254 0.016675714 0.94650006 66305
0.18508573 0.018960001 0.94800007 66305
0.18360001 0.021600001 0.94500005 66307
0.18677317 0.022556001 0.94740003 66053
0.18450001 0.027900001 0.94500005 65796
0.18739907 0.027928574 0.94600004 131343
0.19110477 0.029192384 0.94800013 131336
0.18720001 0.032400001 0.94500005 65795
0.19140571 0.03250286 0.94800007 131329
0.1899 0.036000002 0.94500005 131330
0.19303088 0.037378289 0.94800007 65794
0.19592002 0.03882286 0.94800007 197121
0.19350001 0.042300001 0.94500005 65801
0.19671953 0.042410955 0.94749999 66049
0.19751906 0.047800958 0.94700009 66049
0.1976105 0.052555241 0.94600004 66049
0.20133716 0.053268574 0.94800007 66312
0.19830631 0.057094861 0.94560015 66050
0.20279391 0.057370208 0.94757146 65795
0.19350001 0.062100001 0.94500005 65793
0.19717017 0.062121902 0.94533348 65793
0.20262697 0.062555112 0.94800007 66049
0.19800001 0.06750001 0.94500011 66049
0.20300128 0.067666031 0.94733334 65793
0.19753757 0.072451025 0.94585729 65793
0.20253593 0.073355526 0.94757146 66049
0.2067543 0.07493715 0.94800007 65793
0.1983 0.077700004 0.94500005 65795
0.2030367 0.07760524 0.94750011 65793
0.19818 0.081540003 0.94500011 65793
0.20314288 0.082160003 0.94800007 65793
0.19890001 0.088200003 0.94500005 65793
0.2030721 0.087546997 0.9476667 65793
0.19818 0.092700005 0.94500011 65793
0.20283753 0.093183219 0.94762504 65794
0.2067543 0.092994288 0.94800007 66305
0.19770001 0.097500011 0.94500011 65793
0.20314287 0.097508579 0.94800007 65797
0.19890001 0.1026 0.94500005 65793
0.20292984 0.10191398 0.94700009 65793
0.2067543 0.10382858 0.94800007 65793
0.20271558 0.1072127 0.9460001 65793
0.20735621 0.10804191 0.94800013 65793
-0.19800001 0.11430001 0.94500005 4141076
0.20385 0.1125 0.94500005 65793
0.2067543 0.11285715 0.94800013 65793
-0.20133716 0.11737144 0.94800007 5066822
-0.19693308 0.1174392 0.94542867 2299666
-0.19350001 0.11970001 0.94500005 65794
0.20385 0.11745001 0.94500005 66050
0.2067543 0.11737144 0.94800007 66049
-0.20133716 0.12008001 0.94800007 4804143
-0.19772574 0.12158477 0.94800007 2497312
-0.19310479 0.12283048 0.9460001 65795
-0.1899 0.12330001 0.94500005 65793
0.20430002 0.1224 0.94500005 65793
0.2067543 0.12188572 0.94800013 65793
-0.19200765 0.12730287 0.94800007 327943
-0.1899 0.1251 0.94500005 65793
0.20370004 0.1275 0.94500005 66049
0.20734572 0.12686114 0.94740009 66049
0.21036573 0.12730287 0.94800007 66049
-0.19050287 0.13181715 0.94800007 983301
-0.18829904 0.13244192 0.9460001 65794
0.20430002 0.1323 0.94500005 65793
0.20720574 0.13317144 0.94800007 66049
-0.18725888 0.13751374 0.94620007 65794
0.2047324 0.13799146 0.94700003 66049
0.2067543 0.13633144 0.94800007 66049
-0.18598858 0.14265144 0.94800007 65795
-0.18330002 0.14310001 0.94500005 65793
0.20430002 0.14220001 0.94500005 66049
0.20704216 0.14343929 0.94725001 65795
-0.18508573 0.14626287 0.94800007 65794
-0.18299001 0.14783572 0.94650006 65793
0.20778 0.14693144 0.94650006 2892567
0.21036573 0.14897144 0.94800007 3157515
-0.18289334 0.15225905 0.9460001 65793
0.20850001 0.15210001 0.94500005 1119774
0.21036573 0.15167999 0.94800007 789505
-0.18270001 0.15660001 0.94500005 65793
0.2097 0.15660001 0.94500005 1453861
0.21217144 0.15800002 0.94800013 3089947
-0.18450002 0.16290002 0.94500005 65793
0.21183571 0.16225573 0.94650006 3356719
-0.1839 0.16770002 0.94500005 65793
0.2097 0.1683 0.94500005 131329
0.21578288 0.1688343 0.94800007 65793
-0.18508573 0.17425145 0.94800007 65793
-0.18450001 0.171 0.94500005 131329
0.21578288 0.17064001 0.94800007 65795
-0.18508573 0.17696002 0.94800007 65793
0.21634288 0.17757858 0.94650006 196865
0.21690002 0.18450002 0.94500005 65794
-0.18689144 0.18689144 0.94800013 65793
0.21664289 0.18758573 0.94500017 65793
-0.18689144 0.19230859 0.94800013 65793
-0.18689144 0.19772574 0.94800013 65793
-0.18450001 0.19710001 0.94500005 65793
-0.18689144 0.20314288 0.94800013 65793
0.21690001 0.20430002 0.94500005 65801
-0.18669431 0.20833811 0.94700003 65793
0.2133 0.20880002 0.94500005 65794
0.21721108 0.2082075 0.94537514 65796
-0.19050287 0.21397714 0.94800007 65793
-0.1877383 0.21226287 0.94680005 65793
0.2133 0.2124 0.94500005 65796
0.21690001 0.21195 0.94500005 66049
-0.19050287 0.21578288 0.94800007 65793
-0.1893 0.21690002 0.94500005 65793
0.21690002 0.21870002 0.94500005 65793
0.22230002 0.21870002 0.94500005 1318961
-0.1917 0.22050001 0.94500005 65793
-0.1899 0.22050001 0.94500005 65793
0.21761267 0.22250248 0.94585729 65795
0.22228347 0.22228344 0.94800007 924196
-0.19200429 0.22716144 0.94650006 65793
-0.18990001 0.22770002 0.94500005 65793
0.2172462 0.22776048 0.94650006 65798
0.22120002 0.22752002 0.94800007 1444388
-0.19158629 0.23239544 0.94800007 65793
-0.1875 0.23310003 0.94500005 65793
0.21330002 0.23310003 0.94500005 65793
0.2178143 0.23226 0.94800001 65799
-0.19050287 0.23564574 0.94800007 65793
-0.18773831 0.23751087 0.94680005 65793
0.2133 0.23850001 0.94500005 65793
0.21697514 0.23734412 0.94757152 131332
-0.18689144 0.24286859 0.94800013 65793
-0.18450002 0.2421 0.94500005 65793
0.027960954 0.24441621 0.94700003 65793
0.032451428 0.24338716 0.94650006 65793
0.036585715 0.24348973 0.94620007 65793
0.21258001 0.24246001 0.94500011 65795
0.21736288 0.2430943 0.94800001 131331
-0.18689144 0.24738288 0.94800007 65793
-0.18450002 0.2475 0.94500005 65793
0.013500001 0.24930002 0.94500005 65793
0.017112 0.24765716 0.94560003 65793
0.022528572 0.2470943 0.94620007 65793
0.027610859 0.24704631 0.94740009 65793
0.033405717 0.24648002 0.94800007 65793
0.037378289 0.24720231 0.94800007 65793
0.041850001 0.24795 0.94500005 65793
0.045900002 0.24930002 0.94500005 65793
0.21330002 0.2475 0.94500005 65794
0.21713716 0.24693143 0.94800007 65793
0.22300573 0.24828573 0.94800007 65838
-0.18689144 0.25189719 0.94800013 65793
-0.1839 0.25290006 0.94500005 65793
0.013500001 0.25200003 0.94500005 65793
0.016853334 0.25189719 0.94800007 65793
0.02257143 0.25009143 0.94800013 65793
0.042410962 0.2520653 0.94750011 65793
0.046620004 0.25326005 0.94500011 65793
0.21249087 0.25286004 0.94620007 65793
0.21758859 0.25009143 0.94800007 65793
0.22359394 0.25202182 0.94762504 1381676
0.22643787 0.2525979 0.94725001 5464156
-0.18598859 0.25731429 0.94800007 65793
-0.18210003 0.25770006 0.94500005 65793
0.012630715 0.25711074 0.94725001 65793
0.01625143 0.2555086 0.94800007 65793
0.043313812 0.2571786 0.94749999 65793
0.047340002 0.25758001 0.94500011 65793
0.0513 0.25830004 0.94500005 65793
0.2097 0.25830004 0.94500005 66049
0.21312058 0.2575126 0.94740009 65793
0.21578288 0.2555086 0.94800007 65793
0.22390859 0.25731429 0.94800007 983312
0.22680001 0.25740004 0.94500005 4811360
-0.18508573 0.2618286 0.94800007 65793
-0.18228143 0.26259384 0.94750011 65793
-0.17910001 0.26280001 0.94500005 65793
0.044240002 0.2618286 0.94800007 65793
0.047493212 0.26200464 0.94537508 65793
0.2097 0.26010001 0.94500005 66049
0.2130743 0.26273146 0.94800007 65797
0.22481146 0.26273143 0.94800013 786723
0.22690688 0.26223144 0.94620001 2776673
-0.18192571 0.26769716 0.94800007 65793
-0.17838001 0.26766002 0.94500011 65793
0.048057504 0.26781753 0.94762504 65793
0.051790718 0.26796359 0.94575012 65793
0.21285048 0.26786479 0.94700003 65793
0.22481145 0.26634288 0.94800007 196885
0.22752002 0.26634288 0.94800007 2252123
-0.1814743 0.27176002 0.94800007 65793
-0.1771241 0.27230942 0.94542867 65793
0.047851436 0.27176005 0.94800013 65793
0.052666672 0.27236193 0.94800013 65793
0.056880005 0.27266288 0.94800007 65793
0.0612 0.27360001 0.94500005 65793
0.06750001 0.27450001 0.94500005 65793
0.071100004 0.27450001 0.94500005 65793
0.21249084 0.27268514 0.94620007 66049
-0.17746906 0.27703097 0.94749999 65793
-0.17324999 0.27855003 0.94500005 65793
0.057331432 0.27582288 0.94800007 65793
0.062297147 0.27740288 0.94800001 65793
0.067847349 0.27796245 0.94628584 65793
0.071550004 0.27765 0.94500005 65793
0.21397714 0.27717716 0.94800013 65793
-0.17605716 0.28259432 0.94800013 65793
-0.1728 0.28260002 0.94500005 65793
0.062297154 0.28259432 0.94800007 65793
0.067461073 0.28270751 0.94762504 65793
0.07293953 0.28275001 0.94550014 65793
0.077399999 0.28350002 0.94500005 65793
0.21397714 0.28259432 0.94800013 65793
-0.17605716 0.28801143 0.94800013 65793
-0.17298383 0.28740287 0.9460001 65793
0.063019432 0.28728917 0.94800007 65793
0.067714289 0.28801146 0.94800007 65793
0.07307937 0.28781018 0.94733346 65793
0.077604294 0.28785953 0.94749999 65793
0.080784768 0.28860575 0.9460001 65793
0.21298631 0.28728685 0.94680005 66305
-0.17605716 0.2934286 0.94800007 65793
-0.17324999 0.29205 0.94500005 65793
0.064102866 0.29252574 0.94800007 65793
0.067353144 0.29234517 0.94800007 65793
0.073131435 0.29252574 0.94800007 65793
0.077645719 0.29252574 0.94800007 65793
0.082229808 0.29225025 0.94585729 65793
0.085500002 0.29430002 0.94500005 65793
0.21315144 0.29311717 0.94700003 131585
-0.17605716 0.29704005 0.94800013 65793
-0.17370002 0.29790002 0.94500005 65793
0.066811427 0.29523432 0.94800007 65793
0.073131435 0.29523432 0.94800007 65793
0.078548573 0.29523432 0.94800007 65793
0.082521148 0.29667887 0.94800007 65793
0.087091438 0.29791528 0.94600004 65793
0.2117238 0.29821336 0.9460001 262401
-0.17605716 0.30245715 0.94800007 65793
-0.1737 0.30240002 0.94500005 65793
0.083965719 0.30065143 0.94800007 65793
0.087278776 0.30283636 0.94757152 65793
0.090900004 0.30330002 0.94500005 65793
0.2115 0.30240002 0.94500005 65794
-0.17587146 0.30754957 0.94700003 65793
0.088780962 0.30667052 0.94800013 65793
0.091848098 0.30706334 0.94550014 65793
0.21232572 0.30722666 0.9460001 65795
-0.17605716 0.3123886 0.94800007 65793
-0.17370002 0.31230003 0.94500005 65793
0.092944287 0.31222433 0.94749999 65793
0.096300006 0.31410003 0.94500005 65793
0.21397714 0.3123886 0.94800007 66049
-0.17605716 0.31690288 0.94800013 65793
-0.17309999 0.3177 0.94500005 65793
0.094198108 0.31569907 0.94800013 65793
0.09700191 0.3180362 0.9460001 65793
0.21285085 0.31666115 0.94620007 65794
-0.17605716 0.32232004 0.94800013 65793
-0.17345031 0.32258287 0.94560003 65793
0.097924583 0.32227203 0.94680005 65793
0.20910001 0.32310003 0.94500005 65793
0.21217144 0.32232004 0.94800013 65793
-0.17605716 0.32773718 0.94800013 65793
-0.1728 0.3276 0.94500005 65793
0.098411433 0.32683432 0.94800007 65793
0.10021715 0.32773718 0.94800013 65793
0.20790002 0.3276 0.94500005 65793
0.21036574 0.32773718 0.94800013 65793
-0.17605716 0.33225143 0.94800007 65793
-0.17240001 0.3328529 0.94650006 65793
0.10142096 0.33315432 0.94800013 65793
0.20850001 0.33210003 0.94500005 65793
0.21096763 0.33315432 0.94800013 65793
-0.17217475 0.33773479 0.94650006 65793
-0.022500001 0.33930001 0.94500005 393729
0.10202286 0.3376686 0.94800007 65793
0.20970002 0.33750004 0.94500005 65793
0.21217144 0.3376686 0.94800007 65793
-0.17205477 0.34200239 0.94749999 65793
-0.16770002 0.3441 0.94500005 65793
-0.032400001 0.34470001 0.94500005 65793
-0.027540002 0.34326002 0.94500011 65793
-0.022242857 0.34238571 0.94500017 854793
0.10382858 0.34218287 0.94800013 65793
0.10650001 0.34350002 0.94500005 65793
0.2097 0.34200001 0.94500005 65793
0.21217144 0.34218287 0.94800007 65794
-0.17064001 0.34669715 0.94800007 65793
-0.16766715 0.34795147 0.94650006 65793
-0.16410002 0.3477 0.94500005 65793
-0.036000002 0.34740001 0.94500005 65793
-0.032425001 0.34767643 0.94575012 65793
-0.027704494 0.34780166 0.9471429 65793
-0.022932572 0.34687778 0.94800007 1313036
0.10726858 0.34750003 0.94650006 65793
0.21108802 0.34760004 0.94800007 65793
-0.16642669 0.35241526 0.94800007 65793
-0.16234288 0.35264671 0.94700003 65793
-0.15930001 0.35190004 0.94500005 65793
-0.04095 0.35235003 0.94500005 65793
-0.037003495 0.35289368 0.9476667 65794
-0.03250286 0.35121146 0.94800007 65793
-0.028891429 0.35121146 0.94800007 65793
0.10822763 0.35264575 0.94700003 65793
0.1107 0.35280001 0.94500005 65793
0.2097 0.35280001 0.94500005 65793
0.21172 0.35256574 0.94800007 65793
-0.16522287 0.35753143 0.94800007 65796
-0.16212916 0.3576183 0.94680005 65793
-0.15946859 0.35767621 0.9460001 65793
-0.042365715 0.35741574 0.94650006 65793
0.10834286 0.35753146 0.94800007 65793
0.1107 0.35730001 0.94500005 65794
0.2115 0.35550001 0.94500005 66049
-0.16522287 0.36204574 0.94800007 65793
-0.1622586 0.36237288 0.94650006 65793
-0.047700003 0.36390004 0.94500005 65793
-0.044100005 0.36180001 0.94500005 65793
0.10879429 0.36159432 0.94800007 65793
0.11168786 0.36298788 0.94575 65793
0.2097 0.36450002 0.94500005 66305
0.2124 0.36450002 0.94500005 65801
0.21600001 0.36450002 0.94500005 65797
-0.16522287 0.36565718 0.94800007 65793
-0.16249031 0.36771771 0.94680005 65793
-0.052240718 0.36839217 0.94575012 65793
-0.047820002 0.3672303 0.94740003 65793
-0.044240002 0.36565718 0.94800007 65793
0.11290859 0.36756986 0.94628584 65793
0.2097 0.36720002 0.94500005 66049
0.21210001 0.36750004 0.94500005 66049
0.21726 0.36738002 0.94500011 65796
-0.16522287 0.37468576 0.94800007 65793
-0.16249031 0.37276801 0.94680017 65795
-0.056700002 0.37260002 0.94500005 65793
-0.05296082 0.37305802 0.94714296 65793
-0.049657144 0.37197715 0.94800007 65793
0.11406096 0.37288004 0.94800013 65793
0.11670001 0.37290001 0.94500005 65793
-0.16582477 0.37769529 0.94800013 65793
-0.16300344 0.37733832 0.94560003 65793
-0.0603 0.37890002 0.94500005 65793
-0.056788098 0.37679765 0.94650006 65793
-0.053268574 0.37649146 0.94800007 65793
0.11466286 0.37739432 0.94800007 65793
0.11831594 0.37709802 0.94628584 65793
0.1215 0.37800002 0.94500005 65793
-0.16728403 0.38238689 0.94740003 65793
-0.16380002 0.38070002 0.94500005 65793
-0.0603 0.38430002 0.94500005 65793
-0.058083814 0.38070482 0.94800013 65793
0.11737144 0.38100576 0.94800007 65793
0.12182048 0.38261005 0.94749999 65793
0.12529857 0.38220716 0.94650006 65793
0.2133 0.38430002 0.94500005 65794
0.21578288 0.38371432 0.94800007 65793
-0.17037001 0.38941574 0.94650006 65793
-0.1686562 0.38691527 0.94700003 65793
-0.061394289 0.3882286 0.94800007 65793
-0.05868572 0.38552001 0.94800007 65793
0.12369143 0.38552001 0.94800007 65793
0.12716669 0.38751718 0.94700009 65793
0.1305 0.38970003 0.94500005 65793
0.21273857 0.38806432 0.94650006 65801
-0.17166381 0.39293051 0.94700003 65793
-0.064102866 0.39274287 0.94800007 65793
0.12794344 0.39285547 0.94740009 65793
0.1305 0.39240003 0.94500005 65793
0.21273857 0.39212003 0.94650006 66051
-0.17305887 0.39826918 0.94740003 65793
-0.066504575 0.39776632 0.94620007 65793
0.12820572 0.39635432 0.94800007 65793
0.13130286 0.39715317 0.94560003 65793
0.21211928 0.39766645 0.94575012 65793
-0.17307478 0.4029367 0.94650006 65793
-0.069520004 0.40177146 0.94800007 65793
0.13243809 0.40242481 0.94600004 65793
0.21292572 0.40152383 0.9460001 65793
0.21510001 0.4023 0.94500005 65793
-0.17338786 0.40757215 0.94575012 65793
-0.073131435 0.4053829 0.94800007 65793
0.13299601 0.40656972 0.94740003 65793
0.13590001 0.40860003 0.94500005 65793
0.2097 0.40590003 0.94500005 66049
0.21239829 0.4080143 0.94740003 66305
-0.17605716 0.41441146 0.94800007 65793
-0.17370002 0.4131 0.94500005 65793
0.13452573 0.41170287 0.94800007 65793
0.13664383 0.41353714 0.9460001 65793
0.2130743 0.41080001 0.94800007 66305
0.21578288 0.41080001 0.94800007 66305
-0.1737 0.41760004 0.94500005 65793
0.13738954 0.41758198 0.94700003 65793
0.2193943 0.4180229 0.94800007 65793
0.22336689 0.41874519 0.94800007 65793
-0.17370002 0.42210004 0.94500005 65793
-0.076742865 0.42344001 0.94800007 65793
-0.07493715 0.42344001 0.94800007 65793
0.13784572 0.42254481 0.9460001 65793
0.22410001 0.42030004 0.94500005 65794
0.22734098 0.42134482 0.9460001 131330
0.23193215 0.42108357 0.94575012 131351
-0.17605716 0.42795432 0.94800007 65793
-0.1737 0.42660004 0.94500005 65793
-0.072900005 0.42660004 0.94500005 65793
0.13813715 0.42795432 0.94800007 65793
-0.057180002 -0.35215622 0.95300007 463178
-0.052641906 -0.35215622 0.95300007 660043
-0.048077624 -0.35197195 0.95250005 465741
-0.042658102 -0.35124859 0.95300007 139086
-0.038422544 -0.3518537 0.95300007 465990
-0.031766668 -0.35215622 0.95300007 200772
-0.029043812 -0.35124859 0.95300007 265021
0.012706667 -0.35124859 0.95300007 596804
0.016034603 -0.3518537 0.95300007 530245
-0.066256195 -0.34580287 0.95300007 66334
-0.061670236 -0.34734452 0.95225006 197673
-0.057089999 -0.34797856 0.95150012 199483
-0.052777778 -0.34773016 0.95000005 398655
-0.047500003 -0.34788096 0.95000005 465482
-0.042590957 -0.34797865 0.95150012 531528
-0.037575435 -0.34834421 0.95300007 597576
-0.032220475 -0.3476181 0.95300007 727113
-0.028654832 -0.34735882 0.95300013 857918
-0.024505716 -0.34580287 0.95300007 398153
-0.017698571 -0.3471643 0.95300007 200513
-0.012706667 -0.34852573 0.95300007 332860
-0.0081633339 -0.34773827 0.95250005 267588
-0.0029821771 -0.34709945 0.95300013 399183
0.0027228575 -0.34792066 0.95300007 464191
0.0081590479 -0.34816098 0.95200002 201267
0.012686667 -0.34797859 0.95150006 464448
0.017236669 -0.34773827 0.95250005 399171
-0.071701907 -0.34217238 0.95300007 66061
-0.06807144 -0.34217241 0.95300007 66324
-0.062284358 -0.34248629 0.9517144 131857
-0.057603177 -0.34320641 0.94999999 132893
-0.04071429 -0.34471428 0.95000005 269638
-0.036642857 -0.34426191 0.95000005 399181
-0.032873016 -0.34350798 0.95000005 332881
-0.028105713 -0.34272099 0.95200008 529742
-0.022949798 -0.34217241 0.95300013 398417
-0.017190479 -0.34320638 0.94999999 331080
-0.012666667 -0.34471428 0.95000005 200507
-0.0075396835 -0.34290478 0.94999999 136519
-0.0027142861 -0.34200001 0.94999999 202305
0.0029404762 -0.34267861 0.94999993 201780
0.0078843543 -0.34342179 0.94999999 134717
0.012847619 -0.3432667 0.94999999 989514
0.016964287 -0.34267858 0.94999993 791619
0.021964382 -0.34253547 0.95300007 663640
-0.071701907 -0.33763433 0.95300007 66325
-0.06807144 -0.3376343 0.95300007 132644
-0.062253099 -0.33751571 0.95074999 132899
-0.058809526 -0.33838096 0.95000005 197924
-0.028047621 -0.33928573 0.95000005 333137
-0.020809524 -0.33928573 0.95000005 592968
-0.019000001 -0.33928573 0.95000005 724563
-0.0070571429 -0.33711433 0.94999999 398658
-0.0027142859 -0.33747619 0.94999993 267326
0.0024557821 -0.33799323 0.94999999 266567
0.0081428578 -0.33928573 0.95000005 396355
0.017707486 -0.33773473 0.94999999 793162
0.021561904 -0.33753943 0.95120013 663130
-0.072155721 -0.33264241 0.95300007 67605
-0.067977466 -0.33263147 0.95166665 133678
-0.062680125 -0.33217943 0.95037496 199726
-0.058809526 -0.33023813 0.95000005 528181
-0.0045238095 -0.33385715 0.95000005 332348
0.018396828 -0.33325398 0.95000005 598862
0.022660637 -0.33263078 0.95166671 794969
0.026320953 -0.33128098 0.95300007 926557
-0.075786196 -0.32765049 0.95300007 527917
-0.072700769 -0.32759982 0.95180005 263979
-0.067930482 -0.32786858 0.95100009 331057
-0.063634932 -0.32722223 0.95000005 396337
0.02375105 -0.32759982 0.95180005 794710
0.026320955 -0.32765052 0.95300007 1056853
-0.081685722 -0.32038954 0.95300007 994643
-0.076784573 -0.32256785 0.95300007 728131
-0.072200008 -0.32263812 0.94999999 265532
-0.0687619 -0.32390478 0.95000005 395580
0.023342861 -0.32263812 0.94999999 597586
0.028108573 -0.32216829 0.95200008 662104
0.032674287 -0.3222048 0.95300007 532562
0.036304764 -0.32038954 0.95300007 532047
-0.09166953 -0.31675905 0.95300007 591684
-0.087676011 -0.31748515 0.95300007 395586
-0.082507625 -0.31733429 0.95200008 132408
-0.076709643 -0.31747061 0.95037496 134439
-0.072833337 -0.31757143 0.95000005 68147
0.024428573 -0.31938097 0.95000005 1121112
0.028047621 -0.31787303 0.94999999 793947
0.032390475 -0.31720954 0.94999999 663633
0.036304764 -0.31766668 0.95300007 335180
-0.10256096 -0.31131336 0.95300007 198206
-0.097478293 -0.31203946 0.95300007 329238
-0.092577145 -0.31312859 0.95300007 132139
-0.087978743 -0.31290951 0.95233345 131875
-0.082333334 -0.31214288 0.94999993 131868
-0.078714296 -0.31214285 0.95000005 67099
-0.073285721 -0.31395239 0.95000005 66595
0.029857147 -0.31214288 0.95000005 792929
0.032571428 -0.31214291 0.94999999 990295
0.03664599 -0.31244683 0.9517144 794444
0.040842857 -0.31131336 0.95300007 858451
-0.10165334 -0.30768287 0.95300007 198966
-0.096962385 -0.30810618 0.95150012 330543
-0.092577145 -0.3094981 0.95300007 591905
-0.08823581 -0.30818972 0.95120013 460067
-0.082333341 -0.30852383 0.95000005 196874
0.029857146 -0.3085238 0.95000005 661328
0.032873016 -0.30792063 0.95000005 989521
0.0374064 -0.30764639 0.95128584 1187935
0.041568954 -0.30731982 0.95300007 1186650
-0.10195588 -0.30284226 0.95300007 131610
-0.097068034 -0.30309528 0.94999999 198707
-0.089571431 -0.30400002 0.95000005 465507
0.033476193 -0.30490479 0.95000005 989262
0.037095238 -0.30309525 0.94999999 990553
0.042570479 -0.30250859 0.95100009 1515610
0.046893656 -0.301027 0.95300007 927582
-0.097074643 -0.29778346 0.95037496 65811
0.038904764 -0.29766667 0.95000005 727384
0.042782318 -0.29818368 0.94999999 794201
0.047711622 -0.29733071 0.95240003 597086
-0.096424364 -0.29289216 0.95128584 65794
0.038904764 -0.29133332 0.95000005 593485
0.043040819 -0.29197964 0.94999999 398146
0.048004765 -0.29254574 0.95100003 858447
0.052395236 -0.29242992 0.95180005 663630
0.055364765 -0.29134575 0.95300007 597583
-0.095300011 -0.28862286 0.95300007 65795
0.038904764 -0.28861907 0.95000005 657471
0.042885717 -0.28789526 0.94999999 330813
0.047978576 -0.28786623 0.95050001 266052
0.052518334 -0.28794214 0.95075005 201291
0.056726195 -0.28771526 0.95300007 464973
0.061718099 -0.2859 0.95300007 270173
-0.092178419 -0.28197336 0.95200008 65793
0.044333335 -0.285 0.95000005 134208
0.048210885 -0.2837075 0.94999999 200509
0.052476194 -0.28319049 0.94999999 134711
0.057061903 -0.2828835 0.95100003 660297
0.062107079 -0.28252888 0.95300013 1119828
-0.091525242 -0.27729571 0.95150006 65798
-0.089571439 -0.27776194 0.95000005 65794
0.049309526 -0.27776191 0.95000005 727887
0.05247619 -0.27776191 0.94999999 661837
0.05682024 -0.27775431 0.95074999 726352
0.062852621 -0.27705073 0.95300007 595538
0.067708388 -0.27573469 0.95300007 794195
0.072609529 -0.27500859 0.95300007 927579
0.076240003 -0.27500859 0.95300007 797280
-0.091906905 -0.27209452 0.95075005 65801
-0.088485718 -0.27269527 0.94999999 65796
0.053380955 -0.27414286 0.95000005 1123414
0.057452381 -0.27369049 0.95000005 990807
0.062170073 -0.27181634 0.94999999 1122137
0.067927621 -0.27171525 0.95100009 1123930
0.072437391 -0.27164358 0.95075005 994138
0.076904766 -0.27233335 0.95000005 994401
0.08155857 -0.27276337 0.95150006 1059942
0.087969765 -0.27207214 0.95225006 1125472
0.092431433 -0.27185857 0.95150006 1517670
0.096962385 -0.2718586 0.95150012 1583708
0.10239953 -0.27185857 0.95150012 1126230
0.10755286 -0.27183193 0.95300007 1321300
0.11254478 -0.2713781 0.95300007 1318492
-0.09663105 -0.2670486 0.95180005 66061
-0.092811674 -0.2675693 0.95075005 66070
0.066047624 -0.26871431 0.95000005 1319266
0.071476191 -0.26871431 0.95000005 731481
0.089571431 -0.26871431 0.95000005 1321572
0.091380954 -0.26871431 0.95000005 1321594
0.10404763 -0.26871431 0.95000005 1124692
0.10793608 -0.26723704 0.95037496 991574
0.11230858 -0.26718765 0.95100009 1056598
