# .PCD v0.7 - Point Cloud Data file format
VERSION 0.7
FIELDS x y z rgba
SIZE 4 4 4 4
TYPE F F F U
COUNT 1 1 1 1
WIDTH 44
HEIGHT 1
VIEWPOINT 0 0 0 1 0 0 0
POINTS 44
DATA ascii
-0.020600919 -0.11712585 -1.5053835 4278190080
0.067334324 -0.11712893 -1.519204 4278190080
0.079948902 -0.11712906 -1.5196397 4278190080
0.083729267 -0.11712901 -1.5194112 4278190080
0.093803674 -0.11712879 -1.5182033 4278190080
0.097577393 -0.11712863 -1.5173762 4278190080
0.12850744 -0.11712696 -1.5090387 4278190080
0.16131645 -0.11712264 -1.4878786 4278190080
0.18371183 -0.11711882 -1.4692848 4278190080
0.18938208 -0.11711641 -1.4576057 4278190080
0.1899327 -0.117116 -1.4556978 4278190080
0.19160017 -0.11711461 -1.4489758 4278190080
0.19174439 -0.11711445 -1.4481688 4278190080
0.19185919 -0.11711028 -1.4281644 4278190080
0.19216515 -0.11709483 -1.3538923 4278190080
0.19203031 -0.11708928 -1.3272051 4278190080
0.18962908 -0.11708768 -1.3195769 4278190080
0.18896472 -0.11708749 -1.3186536 4278190080
0.15744758 -0.11707867 -1.276597 4278190080
0.15608215 -0.11707827 -1.2746993 4278190080
0.15494418 -0.11707794 -1.273118 4278190080
0.1540339 -0.11707767 -1.2718531 4278190080
0.14987671 -0.11707665 -1.2669652 4278190080
0.14403868 -0.1170754 -1.2610329 4278190080
0.13750413 -0.11707404 -1.2545608 4278190080
0.13254666 -0.11707311 -1.2501776 4278190080
0.11378375 -0.11706962 -1.2336121 4278190080
0.09381339 -0.11706738 -1.2230749 4278190080
0.0707784 -0.11706613 -1.2172896 4278190080
0.066782981 -0.11706605 -1.2169436 4278190080
0.053191669 -0.11706576 -1.2157472 4278190080
0.026931627 -0.1170653 -1.2137837 4278190080
0.002263248 -0.11706673 -1.2209316 4278190080
-0.020885814 -0.1170692 -1.2330942 4278190080
-0.023296002 -0.11706948 -1.2344617 4278190080
-0.1052113 -0.11708222 -1.296634 4278190080
-0.10919088 -0.11708657 -1.3175658 4278190080
-0.10844363 -0.11710926 -1.4266189 4278190080
-0.10851961 -0.1171137 -1.4479485 4278190080
-0.10826641 -0.11711556 -1.4568897 4278190080
-0.086962938 -0.11712036 -1.4797016 4278190080
-0.071245804 -0.11712331 -1.4937255 4278190080
-0.063483596 -0.11712445 -1.4991516 4278190080
-0.036633853 -0.11712534 -1.5030873 4278190080
