# .PCD v0.7 - Point Cloud Data file format
VERSION 0.7
FIELDS x y z rgba
SIZE 4 4 4 4
TYPE F F F U
COUNT 1 1 1 1
WIDTH 41
HEIGHT 1
VIEWPOINT 0 0 0 1 0 0 0
POINTS 41
DATA ascii
-0.1064251 0.040477823 -1.5287288 4278190080
-0.10289311 0.040478017 -1.5379453 4278190080
-0.044472933 0.040478181 -1.5509086 4278190080
-0.033727035 0.0404782 -1.5528059 4278190080
0.12535387 0.040478133 -1.5645574 4278190080
0.15902245 0.040478159 -1.5688976 4278190080
0.17575753 0.040477872 -1.5573554 4278190080
0.1800741 0.040477782 -1.5535629 4278190080
0.2003994 0.040477343 -1.5353458 4278190080
0.20641875 0.040477183 -1.5286286 4278190080
0.21153593 0.040476918 -1.5169756 4278190080
0.21128666 0.040476792 -1.5111363 4278190080
0.20934531 0.040475052 -1.4314978 4278190080
0.20903438 0.040474925 -1.4256752 4278190080
0.20635307 0.040474359 -1.3995527 4278190080
0.19861686 0.04047383 -1.3746461 4278190080
0.17655253 0.040473372 -1.3516186 4278190080
0.16415823 0.040473107 -1.3384831 4278190080
0.15295279 0.040473025 -1.3336568 4278190080
0.14742434 0.040473018 -1.33269 4278190080
0.051035151 0.040472832 -1.3152193 4278190080
0.047184698 0.040472832 -1.3149171 4278190080
0.036935233 0.040472835 -1.314165 4278190080
0.031801291 0.040472839 -1.3137621 4278190080
0.026667356 0.040472839 -1.3133593 4278190080
0.021533415 0.040472843 -1.3129563 4278190080
0.016399473 0.040472843 -1.3125534 4278190080
0.011265539 0.040472843 -1.3121505 4278190080
0.00097924471 0.040472846 -1.311291 4278190080
-0.0041546971 0.040472846 -1.3108881 4278190080
-0.013120666 0.040472854 -1.3102367 4278190080
-0.050907254 0.040472899 -1.3088963 4278190080
-0.075146995 0.040473357 -1.3276036 4278190080
-0.093960516 0.040473744 -1.3435633 4278190080
-0.098048262 0.040473867 -1.3487613 4278190080
-0.10377281 0.04047405 -1.3565472 4278190080
-0.10385399 0.040474053 -1.35672 4278190080
-0.10670941 0.04047421 -1.3635628 4278190080
-0.10682397 0.040474255 -1.3656915 4278190080
-0.10637907 0.040477499 -1.5139564 4278190080
-0.10642844 0.040477723 -1.5242705 4278190080
