# .PCD v0.7 - Point Cloud Data file format
VERSION 0.7
FIELDS x y z rgba
SIZE 4 4 4 4
TYPE F F F U
COUNT 1 1 1 1
WIDTH 63
HEIGHT 1
VIEWPOINT 0 0 0 1 0 0 0
POINTS 63
DATA ascii
-0.15181226 -0.3599084 -1.2815217 4278190080
-0.12965101 -0.35991293 -1.2445707 4278190080
-0.12394947 -0.35991371 -1.238518 4278190080
-0.092953116 -0.35991699 -1.2125244 4278190080
-0.087579206 -0.35991752 -1.2083694 4278190080
-0.083922267 -0.35991779 -1.2060994 4278190080
-0.046398718 -0.3599185 -1.2020633 4278190080
-0.016645078 -0.35991946 -1.1955802 4278190080
0.020525128 -0.35992095 -1.1846929 4278190080
0.053495724 -0.35992181 -1.179291 4278190080
0.063475341 -0.35992181 -1.1796297 4278190080
0.069062263 -0.35992178 -1.1801182 4278190080
0.072158441 -0.35992175 -1.1806128 4278190080
0.083804138 -0.35992122 -1.185632 4278190080
0.13648078 -0.35991892 -1.207468 4278190080
0.19400644 -0.35991526 -1.2411352 4278190080
0.22024423 -0.35991162 -1.2730193 4278190080
0.24512017 -0.35990861 -1.2995408 4278190080
0.2466144 -0.35990816 -1.303298 4278190080
0.2462967 -0.35990608 -1.320763 4278190080
0.2462635 -0.3599034 -1.3433034 4278190080
0.24622345 -0.35990283 -1.3481498 4278190080
0.24618345 -0.35990223 -1.3529962 4278190080
0.24616921 -0.35990208 -1.3544257 4278190080
0.2461434 -0.35990167 -1.3578426 4278190080
0.24612916 -0.35990149 -1.3592765 4278190080
0.24610341 -0.35990107 -1.362689 4278190080
0.24518061 -0.35989967 -1.3746312 4278190080
0.24289769 -0.3598983 -1.3858787 4278190080
0.23466361 -0.3598958 -1.4064434 4278190080
0.22995996 -0.3598946 -1.4163525 4278190080
0.22708686 -0.35989401 -1.4210407 4278190080
0.21910501 -0.35989237 -1.434459 4278190080
0.20637536 -0.3598901 -1.4528369 4278190080
0.20111859 -0.3598893 -1.4593458 4278190080
0.17365967 -0.35988611 -1.484748 4278190080
0.15895598 -0.35988519 -1.4919121 4278190080
0.15613288 -0.35988507 -1.492801 4278190080
0.13394499 -0.35988453 -1.4960291 4278190080
0.12710667 -0.35988438 -1.4971268 4278190080
0.12363133 -0.35988432 -1.4973367 4278190080
0.11899756 -0.35988426 -1.4976169 4278190080
0.11436379 -0.3598842 -1.4978969 4278190080
0.089641392 -0.3598839 -1.499261 4278190080
0.058850765 -0.35988462 -1.4917691 4278190080
-0.012203008 -0.35988542 -1.4814109 4278190080
-0.032788578 -0.35988596 -1.4758568 4278190080
-0.07202059 -0.35988671 -1.4676555 4278190080
-0.094511867 -0.35988849 -1.451489 4278190080
-0.097456157 -0.35988876 -1.4490615 4278190080
-0.11136596 -0.35989001 -1.4380386 4278190080
-0.11509329 -0.35989043 -1.4342866 4278190080
-0.11866635 -0.35989088 -1.4303058 4278190080
-0.1282053 -0.35989219 -1.4187707 4278190080
-0.13279581 -0.35989287 -1.4128989 4278190080
-0.13945794 -0.35989398 -1.4033966 4278190080
-0.14231831 -0.35989445 -1.399266 4278190080
-0.15194722 -0.35989788 -1.3699837 4278190080
-0.15271801 -0.35989964 -1.3552119 4278190080
-0.15261728 -0.35990164 -1.3382484 4278190080
-0.15272295 -0.35990357 -1.322161 4278190080
-0.15236193 -0.35990795 -1.2853539 4278190080
-0.15236714 -0.35990825 -1.2829515 4278190080
