# .PCD v0.7 - Point Cloud Data file format
VERSION 0.7
FIELDS x y z rgba
SIZE 4 4 4 4
TYPE F F F U
COUNT 1 1 1 1
WIDTH 1127
HEIGHT 1
VIEWPOINT 0 0 0 1 0 0 0
POINTS 1127
DATA ascii
0.22197783 -0.35229522 -1.4245116 3480854
0.22106957 -0.36213833 -1.4278872 3544850
0.2211147 -0.35735986 -1.4273336 3413009
0.21048272 -0.35515389 -1.2677293 5454411
0.21140695 -0.35120201 -1.2705257 5782339
0.21243119 -0.3469089 -1.2739652 5913411
0.22003627 -0.34642881 -1.4236556 3544852
0.21945381 -0.35001019 -1.4262066 3611944
0.22021967 -0.34633353 -1.4269348 3675405
0.21843874 -0.3561309 -1.4301726 3347729
0.21930772 -0.35178342 -1.4303048 3675670
0.22019506 -0.34721422 -1.4299248 3740678
0.21743178 -0.36195809 -1.4331419 3545876
0.21818262 -0.35838553 -1.4339836 3545613
0.21910501 -0.35385597 -1.434459 4133402
0.20326591 -0.36171585 -1.2617254 5848112
0.20351374 -0.35823971 -1.2630954 5979948
0.20338297 -0.35422653 -1.2649646 5914681
0.20683432 -0.34947625 -1.2691989 5914177
0.20681286 -0.34471837 -1.2713238 6242372
0.2154423 -0.35147545 -1.4334201 3805718
0.21634924 -0.34685609 -1.433235 3609355
0.21457362 -0.35657275 -1.4362603 3479825
0.21527541 -0.35311079 -1.436561 3608611
0.21471858 -0.34849465 -1.43773 3544844
0.21423912 -0.3433446 -1.438328 3152912
0.21280253 -0.35850579 -1.4391211 3284495
0.21223044 -0.35399672 -1.4404067 3151382
0.21315873 -0.34943804 -1.4408851 3676931
0.21118522 -0.36013007 -1.4438244 3414554
0.19762278 -0.36050284 -1.2563484 5782823
0.19867384 -0.35557333 -1.257809 5453850
0.19972491 -0.35064378 -1.2592697 4728359
0.20056176 -0.34684849 -1.2609417 4530479
0.19885087 -0.3557736 -1.2621281 5915937
0.19975626 -0.35169905 -1.2640654 6112551
0.2007345 -0.34719703 -1.2657642 5652525
0.21034408 -0.34308049 -1.4410267 3610889
0.20862907 -0.35215387 -1.4427166 3544075
0.20933527 -0.34866983 -1.4430193 3611654
0.21031898 -0.34397006 -1.444047 3873045
0.2077632 -0.35698709 -1.4445682 3348509
0.20839381 -0.35402942 -1.4454446 3414043
0.20916742 -0.35031557 -1.4461802 3480090
0.21008384 -0.34584564 -1.446775 3611155
0.20730388 -0.36034271 -1.4486821 3480842
0.2083689 -0.35491908 -1.4484648 3612438
0.19400644 -0.35944855 -1.2411352 4798512
0.19376236 -0.36162663 -1.2448801 2952473
0.19476151 -0.35700515 -1.246524 3019273
0.19456178 -0.35156062 -1.2481446 3284515
0.19588035 -0.34727889 -1.250715 3613234
0.19477463 -0.35817042 -1.2513921 3541790
0.19582856 -0.35322747 -1.252857 2691349
0.19688255 -0.34828454 -1.2543216 3019288
0.19690621 -0.3433724 -1.255718 3476527
0.19785607 -0.34490713 -1.2603713 3937578
0.20657885 -0.34852058 -1.4485247 3545622
0.20749789 -0.34403843 -1.4491211 3611925
0.20442092 -0.36019048 -1.4516523 3547655
0.2052725 -0.35593873 -1.4518145 3940622
0.20634311 -0.35040113 -1.4512602 3480080
0.20637536 -0.34549147 -1.4528369 3546633
0.20234656 -0.36117908 -1.4549073 3742727
0.20258939 -0.35585192 -1.4561217 3808271
0.20243812 -0.35045764 -1.4550309 3285772
0.20307285 -0.34748113 -1.4559129 3547913
0.20027232 -0.36216989 -1.4581697 4137473
0.20111859 -0.35820124 -1.4593458 4071172
0.18699139 -0.35444546 -1.2442925 4078599
0.1878407 -0.35046244 -1.2454727 4077107
0.18909788 -0.34508702 -1.2492766 4402990
0.19854289 -0.35021394 -1.4578089 3613456
0.19954479 -0.34516779 -1.4578302 3677963
0.19679391 -0.35997695 -1.4615493 4333828
0.19766003 -0.35539499 -1.4606959 4070669
0.19852602 -0.35081294 -1.4598424 3808018
0.18538308 -0.3475816 -1.2461312 4533580
0.19675267 -0.34433717 -1.4599272 3939343
0.19329596 -0.36211386 -1.4613107 4400388
0.19436044 -0.35712168 -1.46279 4267277
0.19501591 -0.35352579 -1.4616386 4070417
0.19652295 -0.34593618 -1.4616705 4070929
0.193492 -0.36171603 -1.4636457 4532231
0.17923331 -0.34280634 -1.2470907 4663851
0.1823082 -0.3433162 -1.2493598 4730416
0.19156522 -0.35068291 -1.4629996 4136214
0.19121277 -0.34507024 -1.4643008 4267538
0.18937796 -0.36251128 -1.4661695 4794645
0.19046032 -0.35699895 -1.4659487 4596508
0.19000638 -0.3516458 -1.466252 4661027
0.18926108 -0.3479192 -1.4671819 4727074
0.18758202 -0.35693127 -1.4693451 4796223
0.18823314 -0.35361505 -1.4692123 5057073
0.18574202 -0.34557474 -1.4691521 4793885
0.18260372 -0.36204842 -1.4717335 5125150
0.18369007 -0.35660273 -1.4718546 4797495
0.18478769 -0.35075265 -1.470603 5320508
0.18280172 -0.36164668 -1.4740914 5190667
0.16641665 -0.34902817 -1.240026 4270362
0.1676107 -0.34329572 -1.2411613 3676699
0.1657505 -0.35268211 -1.241196 4931849
0.16639954 -0.34963852 -1.2420979 4927536
0.1703583 -0.34548101 -1.243531 5122088
0.18222702 -0.34321272 -1.4711326 4730389
0.18068272 -0.351513 -1.4731668 5255760
0.18074894 -0.34618258 -1.4737605 5257268
0.17869639 -0.36220229 -1.4758412 5124624
0.17979395 -0.35647348 -1.4750673 4797985
0.17882913 -0.35149038 -1.476826 5322797
0.17868102 -0.34716606 -1.4771204 5191711
0.17669129 -0.3578226 -1.4795946 5322523
0.17734885 -0.35447383 -1.4794605 5520677
0.16076946 -0.35629958 -1.2375952 4995082
0.16156125 -0.35226691 -1.2374337 4073736
0.16274047 -0.34652412 -1.2382312 3546644
0.16339171 -0.34346983 -1.2391362 3151389
0.16118646 -0.35487586 -1.2402779 5061383
0.17480522 -0.34659219 -1.478979 5192221
0.17546517 -0.34323168 -1.4788444 5256508
0.17324263 -0.35525012 -1.4820654 5518630
0.17383307 -0.35212684 -1.4814837 5586217
0.17257416 -0.35891694 -1.4832397 5517844
0.17365968 -0.35382637 -1.484748 5585454
0.15714967 -0.35166019 -1.2284847 3283724
0.1575768 -0.34992406 -1.2301335 2629889
0.15844822 -0.34583732 -1.2313446 2959874
0.15696704 -0.35367295 -1.2328038 2753285
0.15776879 -0.34982431 -1.2335663 1837834
0.15856469 -0.34618062 -1.235024 2559238
0.15576494 -0.36055607 -1.2360578 4995660
0.15635741 -0.35742182 -1.2354741 4993562
0.15640128 -0.3581056 -1.2390527 5518863
0.1711486 -0.34499174 -1.4811499 5322786
0.17002487 -0.35132942 -1.4838092 5651239
0.17047787 -0.34867144 -1.4823281 5586966
0.16913617 -0.35603079 -1.4846849 5583903
0.17000759 -0.351944 -1.4858959 5651248
0.15213549 -0.35622245 -1.2279593 1774102
0.15273559 -0.35287166 -1.2266756 3021335
0.15375006 -0.34829268 -1.2287914 3222024
0.1512264 -0.3615571 -1.230932 3080733
0.15189093 -0.35817292 -1.2307965 1573919
0.15255535 -0.35478869 -1.2306609 1246982
0.15474153 -0.34453607 -1.2336988 2886159
0.15164638 -0.36012331 -1.2336333 5192764
0.16637605 -0.34943059 -1.484954 5650976
0.16697049 -0.34628537 -1.4843682 5585185
0.16481119 -0.35784099 -1.487015 5583118
0.16635883 -0.35004735 -1.4870479 5717042
0.14517272 -0.35362378 -1.221319 4137763
0.14760166 -0.34944236 -1.2226825 3348256
0.1471349 -0.3449606 -1.2261765 4336154
0.14456367 -0.36065602 -1.2247787 2692127
0.14787221 -0.35645771 -1.2252972 3022366
0.14891338 -0.3510375 -1.2246188 3611936
0.15000153 -0.34620273 -1.2271936 4072723
0.15066838 -0.34280676 -1.2270577 4597773
0.16316903 -0.34545976 -1.4867128 5782050
0.16006297 -0.36110142 -1.4866469 5516562
0.16137934 -0.35492831 -1.4884762 5649454
0.16050577 -0.35189769 -1.4895985 5650495
0.16097051 -0.34548089 -1.4887502 5978404
0.15989262 -0.35795605 -1.4911584 5647671
0.15895599 -0.3525767 -1.4919121 5715772
0.13925618 -0.36268553 -1.2206005 3547426
0.14007127 -0.3586826 -1.2210205 4007194
0.14258432 -0.34653625 -1.2230875 4334624
0.15554136 -0.3493146 -1.4923353 5585199
0.15613288 -0.34645054 -1.492801 5715226
0.13670206 -0.35435402 -1.2181326 5252898
0.13714504 -0.35227665 -1.2187482 4664608
0.13513434 -0.3622497 -1.2180995 4204578
0.13624167 -0.35705626 -1.2196383 4467741
0.12938827 -0.35981202 -1.2160058 4663590
0.13212359 -0.35659823 -1.217128 4991013
0.13477284 -0.34471804 -1.2229627 4598305
0.12151325 -0.34867465 -1.2184569 4469542
0.12241143 -0.34446263 -1.2197051 5058856
0.11852807 -0.34289432 -1.2174838 5713453
0.1068747 -0.35908657 -1.2119906 5123635
0.10755521 -0.35589534 -1.2129363 5781540
0.10914296 -0.34844923 -1.2151427 5257248
0.11372435 -0.3461929 -1.2161589 5255716
0.10298336 -0.35754895 -1.2097285 5322039
0.10503149 -0.34794319 -1.212575 4926744
0.1058327 -0.34404701 -1.213137 4794151
0.10205495 -0.36246032 -1.2106432 4990516
0.10410321 -0.35285446 -1.2134895 5650450
0.10455835 -0.35071981 -1.2141221 5257241
0.099147737 -0.35406739 -1.2008929 4400182
0.1003716 -0.34814119 -1.2018561 3742754
0.10121191 -0.34410718 -1.2026554 3808306
0.098965406 -0.35585496 -1.2043264 4796210
0.10014367 -0.35037565 -1.2061481 4400408
0.10117579 -0.34539559 -1.2070295 4070197
0.09793371 -0.36199868 -1.2080544 5452870
0.098865211 -0.35707086 -1.2071366 5321780
0.099997878 -0.35203856 -1.2098169 5123856
0.10092032 -0.34743285 -1.2099926 4597797
0.093520164 -0.35641044 -1.1997144 4794165
0.094437361 -0.35210896 -1.200989 4006437
0.092548609 -0.36265263 -1.2050284 6044721
0.093178153 -0.35913807 -1.2036819 5124412
0.09441936 -0.35275587 -1.2031853 3942944
0.094877839 -0.35060516 -1.2038226 4007694
0.12710667 -0.35944861 -1.4971268 6439725
0.12363133 -0.35954085 -1.4973367 6308396
0.11899757 -0.3596639 -1.4976169 6178630
0.11436379 -0.35978696 -1.4978969 6243910
0.11011413 -0.36024043 -1.4979702 6044481
0.10509014 -0.36105525 -1.4979066 6176559
0.13935837 -0.36243778 -1.4900469 5783318
0.1345208 -0.36171171 -1.4907998 6110766
0.13349503 -0.35835513 -1.492685 6636096
0.13397953 -0.35506091 -1.4944237 6507358
0.12928763 -0.36236343 -1.4908397 6372666
0.12931216 -0.35826105 -1.4930482 6635575
0.127785 -0.35454178 -1.4951665 6309442
0.12352547 -0.35431308 -1.495608 6177094
0.12354386 -0.35123631 -1.4972645 6242630
0.11926186 -0.3547681 -1.4956815 6244687
0.11422139 -0.35558558 -1.4956177 6308680
0.1083979 -0.35779101 -1.4948647 6110013
0.10957241 -0.35570899 -1.4958987 6110274
0.10491118 -0.35788363 -1.4950753 6504502
0.10492343 -0.35583249 -1.4961797 6373181
0.099093825 -0.35906354 -1.4948745 6177601
0.10027447 -0.35595596 -1.4964608 6308416
0.09328258 -0.35921782 -1.4952257 5980744
0.092144907 -0.35514638 -1.4975046 6439235
0.089019001 -0.35967281 -1.4952992 6045506
0.083978504 -0.36049026 -1.4952354 6046037
0.1536631 -0.36060056 -1.485414 5784641
0.15252781 -0.35548693 -1.4882543 6242384
0.14899892 -0.36072442 -1.4856958 5588032
0.14902356 -0.35660875 -1.4879117 6177873
0.14472547 -0.360495 -1.4861389 5717059
0.14436549 -0.35570359 -1.4887474 6046287
0.14084277 -0.35991225 -1.4867432 5849905
0.13970131 -0.35582742 -1.4890293 6244417
0.13465667 -0.35458979 -1.4900734 6507085
0.13390186 -0.35083762 -1.4921513 6179399
0.13392651 -0.34672186 -1.4943671 5983035
0.13394499 -0.34363511 -1.4960291 6376515
0.12846237 -0.35063913 -1.4926651 6245176
0.12809628 -0.34687677 -1.4947196 6441250
0.1281209 -0.34276101 -1.4969355 6572599
0.1234321 -0.34700057 -1.4950014 6441024
0.12345672 -0.3428849 -1.4972172 6572344
0.11835665 -0.3509075 -1.4932758 6311234
0.11876789 -0.34712449 -1.4952834 6377290
0.11879253 -0.34300873 -1.4974992 6442553
0.11407909 -0.35136402 -1.4933494 6178619
0.11410373 -0.34724826 -1.4955653 6244927
0.11451498 -0.34346524 -1.4975728 6376263
0.10941491 -0.35148787 -1.4936314 6046001
0.10943955 -0.34737217 -1.4958471 6047545
0.10985079 -0.34358913 -1.4978548 6440528
0.10475075 -0.3516117 -1.4939132 6176838
0.10477537 -0.347496 -1.496129 6112318
0.10595986 -0.34437826 -1.4977204 6374941
0.096569955 -0.35491526 -1.4927447 6178115
0.098920494 -0.35176647 -1.4942656 6112077
0.098945111 -0.3476508 -1.4964812 6047041
0.098383635 -0.34406504 -1.4984554 6310467
0.094237864 -0.35497719 -1.4928856 6178115
0.093481004 -0.35156804 -1.4947791 6178370
0.093114913 -0.34780565 -1.4968337 6049091
0.093526155 -0.3440226 -1.4988414 6441545
0.088014841 -0.35582829 -1.4928921 6374205
0.088426113 -0.35204518 -1.4948999 6571586
0.08845073 -0.34792948 -1.4971157 6442055
0.089641392 -0.34378284 -1.499261 6833483
0.082534343 -0.3624894 -1.4897127 5913900
0.083737314 -0.3562848 -1.4929658 6178115
0.08376193 -0.3521691 -1.4951817 6177607
0.084173173 -0.34838602 -1.4971894 6179404
0.079036206 -0.36258224 -1.4899242 5980732
0.079646945 -0.35793659 -1.4923817 5850435
0.080257654 -0.35329089 -1.4948392 6112320
0.074390501 -0.35961935 -1.4918679 6112584
0.069726288 -0.35974321 -1.4921497 5980224
0.06389606 -0.35989806 -1.4925021 5586456
0.17233777 -0.36180925 -1.477675 5913637
0.16766074 -0.36090046 -1.4785141 5979434
0.1665085 -0.35783216 -1.4802536 6178106
0.16297755 -0.36102483 -1.4787972 6112034
0.16299611 -0.35792544 -1.4804658 6045742
0.15830058 -0.36011603 -1.4796365 5981998
0.15831909 -0.35701665 -1.481305 6047034
0.15834379 -0.35288417 -1.4835299 6702411
0.15481287 -0.35607684 -1.4820735 6111814
0.15483141 -0.35297742 -1.4837422 6307406
0.15368533 -0.34887603 -1.4860377 6243667
0.15331775 -0.34509832 -1.4881008 6440523
0.1489836 -0.35209981 -1.4846522 6307931
0.14900213 -0.34900036 -1.4863206 6309198
0.14902687 -0.34486789 -1.4885454 6637115
0.14431894 -0.34912473 -1.4866037 6046797
0.14434367 -0.34499225 -1.4888285 6309448
0.13963574 -0.34924912 -1.4868867 6243399
0.13966048 -0.34511659 -1.4891115 6179147
0.082297623 -0.34560686 -1.4931349 6179921
0.077558815 -0.35502934 -1.4884121 5981743
0.078366101 -0.35053179 -1.4907751 6046535
0.078779042 -0.34673327 -1.4927909 5916754
0.074046433 -0.35512263 -1.4886245 6046522
0.074071139 -0.35099015 -1.4908493 6177603
0.075266629 -0.34682655 -1.4930032 6112588
0.069363236 -0.35524696 -1.4889073 5719107
0.069776148 -0.35144851 -1.4909232 5849675
0.063509226 -0.35540238 -1.4892612 5455669
0.063533962 -0.3512699 -1.491486 5783335
0.057630539 -0.35969037 -1.4873902 5454405
0.057655245 -0.35555789 -1.4896151 5847875
0.058850765 -0.3513943 -1.4917691 6111565
0.052947342 -0.35981473 -1.4876732 5980998
0.054136693 -0.35668433 -1.489271 6243134
0.17667788 -0.35989773 -1.473827 6045758
0.17237926 -0.35863012 -1.4748313 5652752
0.17200428 -0.35587659 -1.4763432 5718569
0.16809309 -0.35528955 -1.4769516 6438714
0.16654968 -0.35153073 -1.4790925 6700890
0.16300732 -0.35473374 -1.4776312 6373442
0.16302589 -0.35162428 -1.4793053 6569808
0.16188228 -0.3464731 -1.4821663 6243921
0.15835851 -0.34656671 -1.4823793 6048086
0.07262522 -0.34677061 -1.4886774 5980997
0.073818415 -0.34362996 -1.4902804 6178374
0.068705738 -0.34756553 -1.488542 5849930
0.069113821 -0.34479123 -1.4900063 5980731
0.064402997 -0.34698895 -1.4891742 5850664
0.064415395 -0.34491596 -1.4902903 6112824
0.05793345 -0.34871525 -1.4887277 6309452
0.059717029 -0.34504077 -1.4905744 6637921
0.052224159 -0.35422111 -1.4861877 6571332
0.052632242 -0.35144675 -1.4876522 6506823
0.047871858 -0.36193633 -1.482356 6177864
0.048279911 -0.35916203 -1.4838203 6374744
0.049089849 -0.35464978 -1.4861912 6899030
0.043173462 -0.36206108 -1.48264 6374986
0.04318586 -0.35998812 -1.4837559 6308685
0.038487464 -0.36011291 -1.4840399 5915214
0.0337767 -0.36231062 -1.4832079 5454170
0.03261447 -0.36026883 -1.4843949 5189704
0.18062612 -0.36249736 -1.4675777 5914696
0.18064478 -0.35937786 -1.4692571 6111038
0.17827553 -0.36152008 -1.4682798 6177349
0.17752314 -0.35599521 -1.4713131 5982018
0.17597473 -0.35222414 -1.4734607 6374993
0.1728344 -0.35196102 -1.4738373 6309944
0.17246443 -0.34815872 -1.4759136 6178605
0.1713171 -0.34299082 -1.4787838 6833486
0.16891056 -0.35137206 -1.4744478 7159615
0.16814566 -0.34792683 -1.4763613 6373705
0.16777569 -0.3441245 -1.4784377 6506573
0.16422182 -0.3473379 -1.476972 6112085
0.16424048 -0.3442184 -1.4786513 6637648
0.055833906 -0.34605742 -1.4857631 6506582
0.052292526 -0.3471911 -1.485417 6637649
0.046350747 -0.35566622 -1.4812945 7162199
0.047163308 -0.35113949 -1.4836729 6638164
0.048751116 -0.34832481 -1.4850708 6507354
0.042815566 -0.3557601 -1.4815081 6637648
0.044012606 -0.35260934 -1.4831164 6703953
0.038101971 -0.35588527 -1.481793 6112586
0.036942214 -0.35279709 -1.4835438 6178885
0.033745915 -0.36189243 -1.4788818 5586002
0.033388346 -0.35601044 -1.482078 5386558
0.034585416 -0.35285965 -1.4836861 5653560
0.028649896 -0.36029497 -1.4801235 5321528
0.028668553 -0.35717544 -1.4818029 5123388
0.19577146 -0.36207405 -1.4564282 6244419
0.19139993 -0.36211237 -1.4578726 6242627
0.19025955 -0.3576825 -1.4592065 6372426
0.18668094 -0.35805219 -1.4604132 6044486
0.18632597 -0.35394716 -1.461513 6047035
0.18555558 -0.35047686 -1.4634404 6114115
0.18305576 -0.36210749 -1.4619142 5651778
0.18307447 -0.35897538 -1.4636004 5848131
0.18193215 -0.35455051 -1.4649315 5916217
0.18221977 -0.34934154 -1.466123 6179136
0.18178624 -0.34410265 -1.4680675 6047017
0.17839184 -0.35074884 -1.4683831 6637129
0.17748374 -0.34574077 -1.4702387 6178101
0.17291835 -0.34289119 -1.4730258 6637632
0.04671973 -0.34554642 -1.4810276 6441821
0.041962117 -0.34984818 -1.4790653 6376787
0.042256117 -0.3445805 -1.480364 6442328
0.038018286 -0.34995291 -1.4793037 6309711
0.037807167 -0.34527165 -1.4809314 6506326
0.032496929 -0.35009953 -1.4796374 5189687
0.032512158 -0.34518042 -1.4804653 4270639
0.028137892 -0.35369489 -1.4780262 4992058
0.027836084 -0.34971455 -1.4792825 5123893
0.02807954 -0.34399807 -1.4796125 4663833
0.023374081 -0.35904068 -1.4755019 5323316
0.023075461 -0.35401908 -1.477319 5192249
0.023309737 -0.34831086 -1.477645 5389624
0.023005724 -0.34432113 -1.4789068 5389102
0.018641457 -0.35916635 -1.4757878 5388610
0.018207788 -0.35282627 -1.4746827 5520443
0.018239111 -0.34758937 -1.4775021 5652276
0.012725711 -0.35932344 -1.4761453 5717295
0.013019696 -0.35342404 -1.4753987 5783349
0.013491303 -0.34771541 -1.4777889 5848617
0.012323171 -0.34460482 -1.4795524 5848876
0.0068099648 -0.3594805 -1.4765028 6045735
0.0072300434 -0.35285598 -1.4754871 6111804
0.0075565428 -0.34787303 -1.4781476 5913651
0.0075815916 -0.34368351 -1.4804032 5848636
0.002077356 -0.35960621 -1.4767888 6046537
0.0016761571 -0.35345289 -1.4763396 6176841
0.0016217828 -0.34803063 -1.4785064 6111562
0.0017753839 -0.34412739 -1.4817364 6310724
-0.0026552528 -0.35973188 -1.4770749 5980746
-0.0031573623 -0.35339361 -1.475974 5848391
-0.0031260401 -0.34815672 -1.4787933 6111780
-0.0031009912 -0.34396717 -1.4810487 6310462
-0.0077983737 -0.35903096 -1.4744217 6044995
-0.0079051405 -0.35351965 -1.4762609 6111812
-0.0078738481 -0.34828278 -1.4790802 6046786
-0.0074552298 -0.34443188 -1.4811238 6178649
-0.012684286 -0.35888267 -1.4737284 5913680
-0.012652963 -0.35364574 -1.4765477 5849923
-0.012621656 -0.34840882 -1.4793671 5849418
-0.012203008 -0.34455797 -1.4814109 5915478
-0.017432109 -0.3590087 -1.4740154 5848385
-0.017413303 -0.35586655 -1.4757069 5783604
-0.021786347 -0.35947344 -1.4740903 5716795
-0.026933998 -0.36030826 -1.4740254 5586487
0.19631308 -0.35824695 -1.4527578 6440787
0.19274426 -0.3572903 -1.45354 6636374
0.19157147 -0.35416725 -1.4553105 6635595
0.19040489 -0.3499926 -1.457647 6243143
0.18802154 -0.35005587 -1.4577912 6178627
0.18685496 -0.34588122 -1.4601276 6244163
-0.018118143 -0.35132414 -1.4725152 5586234
-0.01809299 -0.34711784 -1.4747797 5914174
-0.016876131 -0.34287995 -1.4769723 6046532
-0.023305282 -0.35531703 -1.4707515 5520433
-0.022884965 -0.35145071 -1.4728034 5782810
-0.022859812 -0.34724444 -1.4750679 6045739
-0.027676925 -0.35578358 -1.470827 5323825
-0.027651772 -0.35157734 -1.4730915 5847845
-0.027626634 -0.34737101 -1.475356 6242089
-0.032468915 -0.36011648 -1.4688504 5586478
-0.032443762 -0.35591015 -1.471115 5324849
-0.032418594 -0.35170385 -1.4733795 5782578
-0.032788575 -0.34715763 -1.4758568 5915440
-0.036044031 -0.3602114 -1.4690665 5193779
-0.036025167 -0.35705671 -1.4707649 4407349
0.20003381 -0.35677892 -1.4475788 6178108
0.20005274 -0.35361168 -1.4492838 5784866
0.19764721 -0.35578671 -1.4482918 6310479
0.19606876 -0.35301375 -1.4499038 6374474
0.19529849 -0.34845987 -1.4524151 6179158
0.19531745 -0.3452926 -1.4541203 5982548
0.19288665 -0.35169077 -1.4508545 6635593
0.1929056 -0.34852344 -1.4525597 6374734
0.19173437 -0.34433216 -1.4549055 6243149
-0.031983867 -0.34710601 -1.4701324 6044975
-0.039232075 -0.35891011 -1.4643139 5390910
-0.038407087 -0.35431391 -1.4667287 5062461
-0.037985086 -0.35043219 -1.4687887 5651506
-0.037959844 -0.3462092 -1.4710623 5848628
-0.042424738 -0.35934681 -1.4643173 5520714
-0.041606039 -0.35580635 -1.4661638 5586756
-0.048810035 -0.36022002 -1.4643239 5585735
0.20492595 -0.35978946 -1.4410375 5978950
0.204945 -0.35661209 -1.442748 6112574
0.2025255 -0.35985324 -1.4411825 6111039
0.20255715 -0.3545576 -1.4440336 5785143
0.20098639 -0.34965757 -1.4467913 5916185
0.20021361 -0.34508929 -1.4493104 6047040
0.19778779 -0.34938946 -1.4471747 6178610
0.19781312 -0.345153 -1.4494555 5916491
-0.044664115 -0.35582766 -1.4618273 5520971
-0.043438494 -0.35155931 -1.4640355 5783107
-0.043413177 -0.34732279 -1.4663163 6242109
-0.043387845 -0.34308636 -1.4685971 6044744
-0.047083631 -0.35906878 -1.4602618 5454157
-0.048264861 -0.35592324 -1.462045 5585999
-0.048239544 -0.35168678 -1.4643257 5586512
-0.047816217 -0.34779269 -1.4663923 5914434
-0.04779087 -0.34355623 -1.468673 5849157
-0.053084925 -0.3592281 -1.4606245 5649728
-0.053065926 -0.35605076 -1.4623351 5518916
-0.051846653 -0.3528415 -1.4639732 5323597
-0.058136135 -0.36105657 -1.4600167 5320243
-0.057866916 -0.35617828 -1.4626251 5452862
-0.062699646 -0.36160135 -1.4600644 5255225
-0.062674314 -0.35736486 -1.4623451 5517639
0.21069905 -0.36076444 -1.4343888 5785146
0.20991689 -0.35724136 -1.4363455 5916480
0.20748779 -0.36049533 -1.4347738 5784135
0.20751321 -0.35624206 -1.4370637 5980482
0.2063337 -0.3520208 -1.4394262 5982529
0.20514774 -0.34886286 -1.4412165 5982780
0.20275044 -0.34680024 -1.4425069 6112560
0.20276952 -0.34361029 -1.4442244 6243639
-0.050250456 -0.34501329 -1.4623798 6243650
-0.054296851 -0.35008216 -1.4599512 5258301
-0.05387187 -0.34617263 -1.4620258 5914425
-0.05871734 -0.35055396 -1.4600273 5453358
-0.058691904 -0.34630063 -1.4623171 5584412
-0.063556433 -0.35387182 -1.4586012 5583680
-0.063537344 -0.3506819 -1.4603186 5517619
-0.063112378 -0.3467724 -1.4623934 5387044
-0.068408281 -0.35931641 -1.4560304 5388593
-0.068382829 -0.35506314 -1.4583201 5717036
-0.072828755 -0.35978812 -1.4561065 5126443
-0.072004229 -0.35622239 -1.4579661 5259557
0.21568358 -0.35955793 -1.4301125 6047274
0.21246856 -0.35822126 -1.4310731 5850681
0.21168393 -0.35468709 -1.4330359 5916485
0.21009561 -0.35081878 -1.435239 5982549
0.20689976 -0.34628215 -1.4379221 6244168
-0.065423697 -0.34320402 -1.4599352 5453109
-0.069088429 -0.34970033 -1.4567087 5649969
-0.068455309 -0.34488428 -1.4592563 5583667
-0.075177133 -0.35732755 -1.4530541 5126185
-0.074350029 -0.35375059 -1.4549197 5323305
-0.072714865 -0.34979662 -1.4569279 5454382
-0.078409135 -0.35883537 -1.4524833 5320751
0.22113729 -0.35985491 -1.4238529 5917242
0.21671531 -0.35533258 -1.4266199 6245183
0.21632791 -0.35248777 -1.428182 6245449
0.21270001 -0.35044271 -1.4295549 5917262
0.21191233 -0.34689462 -1.4315255 6113370
-0.076076388 -0.34954548 -1.4516225 5257772
-0.074843615 -0.34630066 -1.4532788 5389359
-0.080151483 -0.35465014 -1.4491765 5189691
-0.079723462 -0.35071304 -1.4512659 5191219
-0.084226593 -0.35975498 -1.4467305 5121335
-0.083396196 -0.35616401 -1.4486035 5254213
0.22380012 -0.35844851 -1.4187196 6114113
0.22017086 -0.35424539 -1.4212557 6572862
0.21897829 -0.34997752 -1.4236444 6311248
0.21777928 -0.34678471 -1.4254544 6310476
0.2153298 -0.3489995 -1.4244442 6114125
0.21534911 -0.34577435 -1.4261805 6177860
-0.079917297 -0.34480089 -1.4487741 5060907
-0.086811841 -0.35702267 -1.4427043 5121081
-0.085978225 -0.35341761 -1.4445844 5254491
-0.085548535 -0.34946495 -1.446682 5320773
-0.084310949 -0.34620741 -1.4483446 5256497
-0.090498984 -0.36249503 -1.4400312 4859449
-0.09047325 -0.3581948 -1.4423463 4989483
-0.090447515 -0.35389456 -1.4446614 5188416
-0.090428233 -0.35066938 -1.4463978 5188419
-0.094153911 -0.36259207 -1.4402521 4665398
0.2276856 -0.36024693 -1.4117683 6309944
0.22404867 -0.35494807 -1.4148952 6638409
0.22285146 -0.35066357 -1.4172932 6572352
0.22043115 -0.34641159 -1.4197652 6442325
-0.089358121 -0.34564555 -1.4433327 5255479
-0.095138937 -0.35802856 -1.4370925 4730165
-0.095119566 -0.35479081 -1.4388355 5188394
-0.095100179 -0.35155305 -1.4405788 5188149
-0.092621773 -0.34609187 -1.4433361 5058357
-0.097597986 -0.36025196 -1.4360782 4533813
0.2303198 -0.36236581 -1.4058762 6374718
0.22911885 -0.35806796 -1.4082818 6244676
0.22547063 -0.35275272 -1.4114184 6769990
0.22548357 -0.35058752 -1.4125839 6637883
0.22306222 -0.34523964 -1.4156466 6637896
-0.095890567 -0.34829709 -1.4378387 5057076
-0.095877618 -0.34613183 -1.4390044 4993587
-0.1008822 -0.36250117 -1.4305583 4271392
-0.10003625 -0.35778815 -1.4330344 4467764
-0.098376662 -0.35377523 -1.4350728 5057585
-0.09835723 -0.35052744 -1.4368215 4991785
0.23386127 -0.36132348 -1.4004812 6374719
0.23429996 -0.35660306 -1.4029919 6375770
0.23061156 -0.35561439 -1.4038002 6310727
0.22939301 -0.35347351 -1.405045 6376777
0.22573709 -0.34705091 -1.4087788 6507321
-0.10184713 -0.35140315 -1.4309183 4860970
-0.099351406 -0.34590381 -1.433695 4795436
-0.10519215 -0.36163384 -1.425656 4336919
-0.10434288 -0.35690257 -1.4281418 4599093
0.23579037 -0.35850865 -1.3961617 6439508
0.22842437 -0.34997773 -1.4013088 6573122
0.22599077 -0.34349746 -1.4049823 6572344
-0.10283774 -0.34459358 -1.4289694 4598043
-0.10786153 -0.35781676 -1.4222201 4533532
-0.10700899 -0.35306728 -1.4247155 4992314
-0.106163 -0.34940872 -1.4266235 5254423
-0.10530397 -0.3435683 -1.4297061 4731150
-0.11036037 -0.36224636 -1.4200201 4204036
-0.11034079 -0.35897341 -1.4217823 4075018
0.22868749 -0.34643248 -1.3975073 6572345
-0.10634964 -0.34437913 -1.4236554 4796679
-0.11137962 -0.35546276 -1.4180595 4336148
-0.11135997 -0.35217717 -1.4198283 4728097
-0.11009264 -0.34776357 -1.4221117 5188627
-0.10882533 -0.34334984 -1.4243951 4862991
-0.11389461 -0.36100453 -1.4152614 4072968
-0.11387496 -0.35771903 -1.4170301 3811600
0.22895068 -0.34287044 -1.393715 6572842
-0.11237231 -0.34423968 -1.4184889 4793875
-0.11745444 -0.36086261 -1.409912 4204045
-0.11743472 -0.35756445 -1.4116876 4073745
-0.11491667 -0.35310087 -1.4139044 4138267
-0.11572316 -0.34909192 -1.4161247 4661276
-0.11487062 -0.34540519 -1.4180475 4592667
-0.11847927 -0.35183465 -1.4091611 4203550
-0.11844626 -0.34631678 -1.4121318 4922654
-0.11717582 -0.34297287 -1.4138386 4529183
-0.12228394 -0.36076277 -1.4046348 4072467
-0.12100693 -0.35631531 -1.4069357 4335895
-0.12098713 -0.35300457 -1.408718 4335926
-0.12096072 -0.34859034 -1.4110945 4661283
-0.12205426 -0.34946114 -1.4050151 4333356
-0.12202112 -0.34392238 -1.4079971 4924209
-0.12714863 -0.36177981 -1.3987585 3677717
-0.12545051 -0.35767359 -1.4008441 4138000
-0.12458488 -0.35285106 -1.4033778 4204092
-0.12821499 -0.35493031 -1.3968368 4071691
-0.12819505 -0.35159448 -1.3986326 4070943
-0.1256482 -0.34707972 -1.400875 4398645
-0.13076852 -0.36055696 -1.3939959 4006167
-0.12927446 -0.34692279 -1.3955384 4398114
-0.13442075 -0.36156699 -1.3880326 4530202
-0.13354856 -0.35670799 -1.3905857 4530705
-0.13184425 -0.35368684 -1.392086 4399111
-0.1342162 -0.35128981 -1.3878629 4530951
-0.13291304 -0.34565437 -1.390802 4594184
-0.13807866 -0.36035362 -1.3832679 4794647
-0.13805185 -0.35587227 -1.3856807 4729879
-0.14307006 -0.34592411 -1.391416 4789029
-0.14305669 -0.34368342 -1.3926221 4724521
-0.13425711 -0.34630248 -1.383723 4530177
-0.13938537 -0.35093948 -1.3816079 4860687
-0.13682124 -0.34862095 -1.3826654 4858642
-0.14327192 -0.36116934 -1.3763864 4793119
-0.14196968 -0.35663402 -1.3787328 4991783
-0.14194949 -0.35325792 -1.3805503 4926239
-0.14445974 -0.34657341 -1.3843396 4660001
-0.13963747 -0.34584162 -1.3786814 4859685
-0.13919276 -0.34281811 -1.3802774 4793886
-0.14566749 -0.35541326 -1.3739748 4988470
-0.14478485 -0.35049582 -1.3765584 4858910
-0.14390893 -0.34670794 -1.3785338 4794658
-0.143033 -0.34292012 -1.3805095 4727589
-0.14825468 -0.35999948 -1.3716972 4133411
-0.14818037 -0.34757429 -1.3783864 4067864
-0.1493911 -0.3553268 -1.3686076 5116206
-0.14937754 -0.35305926 -1.3698283 5049904
-0.15199468 -0.36106375 -1.3657111 5378828
-0.15196756 -0.35652876 -1.3681525 5514539
-0.15194722 -0.35312748 -1.3699837 5512487
-0.15075183 -0.34923086 -1.3651637 4984863
-0.15073819 -0.3469533 -1.3663899 4526607
0.053495724 -0.34799927 -1.179291 4464935
0.063475341 -0.35911822 -1.1796297 3546405
0.069062263 -0.35798821 -1.1801182 3151628
0.072158441 -0.35184509 -1.1806128 3875864
0.041529402 -0.35145465 -1.1822188 3023377
0.041579902 -0.34792659 -1.1823661 3808282
0.041647248 -0.34322256 -1.1825625 4270627
0.04536204 -0.3570115 -1.1822966 3744776
0.04503265 -0.35269254 -1.182446 3483658
0.045099996 -0.34798849 -1.1826423 4402455
0.045167342 -0.34328446 -1.1828388 4928542
0.050781623 -0.36102784 -1.1825627 4466207
0.04965876 -0.35747916 -1.1826179 4268563
0.049726099 -0.35277513 -1.1828144 4006176
0.049793452 -0.34807107 -1.1830107 4661809
0.04986079 -0.34336704 -1.183207 5386542
0.05468161 -0.36188066 -1.1828369 4664103
0.054352216 -0.35756171 -1.1829863 4859921
0.054419555 -0.35285768 -1.1831826 3679003
0.054883637 -0.34776852 -1.1834261 4727341
0.054554243 -0.34344959 -1.1835754 5585195
0.058978327 -0.36234835 -1.1831582 4074558
0.059045672 -0.35764429 -1.1833546 4467758
0.059113011 -0.35294026 -1.183551 4073256
0.059180357 -0.3482362 -1.1837474 4859949
0.058850963 -0.34391731 -1.1838967 5518636
0.064135849 -0.35734177 -1.1837699 3415330
0.063806459 -0.35302281 -1.1839193 3874093
0.063873805 -0.34831876 -1.1841156 4730653
0.064326659 -0.34401363 -1.1843264 5520688
0.068499915 -0.3531054 -1.1842877 3743777
0.069723785 -0.34959799 -1.184527 4401697
0.067444406 -0.34485266 -1.1845392 5324071
0.075019896 -0.36223847 -1.184433 3021575
0.073826686 -0.3581396 -1.184505 3152400
0.075540088 -0.35322925 -1.1848401 4072993
0.074434079 -0.34850454 -1.1849444 4730416
0.074501425 -0.34380051 -1.1851408 5257277
0.079060175 -0.35329115 -1.1851164 4138790
0.079904161 -0.34899288 -1.1853578 4664885
0.083804138 -0.34984571 -1.185632 4139057
0.035877705 -0.34716886 -1.1859612 3349807
0.04028976 -0.35700211 -1.1859112 3154717
0.038954869 -0.35155004 -1.1860269 3415842
0.039022423 -0.34683079 -1.186224 3611177
0.043545276 -0.35989159 -1.1860517 4138753
0.062514961 -0.35078439 -1.1879238 4598566
0.064903066 -0.34846619 -1.1882071 4934165
0.067223608 -0.35086724 -1.1882933 4401437
0.068838194 -0.3477487 -1.1885478 4928799
0.076539546 -0.35811177 -1.1887369 3481625
0.080299705 -0.35865003 -1.1890128 3415825
0.081315748 -0.35347536 -1.1893034 4007984
0.080621056 -0.34716922 -1.1895045 4993340
0.080290601 -0.34283626 -1.1896544 5256774
0.084199533 -0.35765654 -1.1893619 3283736
0.085250877 -0.35275787 -1.1896442 3743791
0.084931679 -0.34763843 -1.1898268 4401974
0.08498235 -0.34409893 -1.1899747 4861766
0.088344924 -0.35595927 -1.1897591 3150873
0.088412486 -0.35123998 -1.1899562 3808803
0.088463157 -0.34770054 -1.190104 3808809
0.088513829 -0.34416103 -1.1902517 4335422
0.019416116 -0.35535836 -1.1933607 3415041
0.018682353 -0.35138321 -1.1934639 3480842
0.018349499 -0.34701881 -1.1936148 3678215
0.024056859 -0.36257207 -1.1934352 3678228
0.023357123 -0.35622013 -1.1936377 3481132
0.023096815 -0.35152873 -1.1928036 3547160
0.023164809 -0.34677908 -1.193002 3677976
0.027944058 -0.35774213 -1.1899233 3612427
0.028011896 -0.3530038 -1.1901211 3809298
0.028079726 -0.34826553 -1.1903189 3742476
0.03378576 -0.36258444 -1.1901892 3613451
0.033853598 -0.35784614 -1.190387 3286294
0.033921428 -0.35310781 -1.1905849 3481634
0.032419026 -0.34794694 -1.1906756 3545635
0.033274814 -0.3432225 -1.1909351 4204074
0.085840546 -0.35994551 -1.1944188 3348502
0.089791544 -0.35922509 -1.194761 3282701
0.089859374 -0.35448679 -1.1949588 3414044
0.090720803 -0.34936753 -1.1952349 3021341
0.089866854 -0.34295419 -1.1954277 4599866
0.094116017 -0.35752901 -1.1981841 3283736
0.094579406 -0.35307309 -1.1980672 3414557
0.09425246 -0.34889188 -1.1975417 2431011
0.094069213 -0.3440513 -1.1989286 3679275
0.098440394 -0.35833347 -1.1994979 4335398
0.098909348 -0.35319078 -1.1997439 3808801
0.098977402 -0.34843722 -1.1999424 3347731
0.099045455 -0.34368372 -1.2001408 3348235
-0.016645074 -0.35398814 -1.1955802 4534052
-0.011883274 -0.35407189 -1.195954 4994856
0.017826766 -0.35817486 -1.1981401 3479049
0.016687557 -0.3545745 -1.1981962 3479818
0.021381035 -0.35943085 -1.1983706 3546142
0.099984966 -0.35842675 -1.2046362 4335409
0.10313673 -0.36007345 -1.204819 4861490
0.10360757 -0.35491017 -1.205066 4466479
0.10367589 -0.35013762 -1.2052652 4202775
0.10351637 -0.34464502 -1.2054756 3741189
0.10709351 -0.3609387 -1.2050971 5059632
0.1118724 -0.35982931 -1.2055206 5588791
0.12733118 -0.36129472 -1.2066853 5258298
0.13211006 -0.36018533 -1.2071089 4403761
0.13256951 -0.3558175 -1.2073226 4863553
0.13648078 -0.35986444 -1.207468 3416368
0.1365377 -0.35588729 -1.2076341 4010038
0.13580099 -0.3518962 -1.2077378 5124667
-0.022758186 -0.35632095 -1.2000214 4403241
-0.017254904 -0.36160997 -1.2002423 3943969
-0.01720345 -0.35801628 -1.2003924 4140826
-0.01713486 -0.35322466 -1.2005924 4796206
-0.011683032 -0.36210743 -1.2006633 4337458
-0.010817632 -0.35732982 -1.2009259 4666919
-0.012354076 -0.35330877 -1.2009676 5126201
0.009262383 -0.34649989 -1.202956 3480853
0.0093138292 -0.34290618 -1.203106 3480085
0.013957426 -0.35257342 -1.2030811 3482133
0.012813672 -0.34895876 -1.2031374 3416076
0.01740583 -0.36221972 -1.2029624 3414551
0.1047067 -0.36016089 -1.2099596 4861498
0.10494679 -0.34339035 -1.2106597 3610117
0.10830944 -0.3590261 -1.210291 5191214
0.10837805 -0.35423446 -1.2104911 4928801
0.10844664 -0.34944296 -1.2106911 4599319
0.10732004 -0.3446303 -1.2107973 3808518
0.11309024 -0.35911021 -1.2106662 5522486
0.11194649 -0.35549545 -1.2107224 5390378
0.11204939 -0.34830812 -1.2110225 5057814
0.11665868 -0.36037114 -1.2108976 5522231
0.12384702 -0.35929945 -1.2115103 5717305
0.12743261 -0.35936248 -1.2117918 5454911
0.12867926 -0.35578984 -1.2120355 5585992
0.13228199 -0.354655 -1.2123669 5322824
0.13824084 -0.35595804 -1.212786 3744558
0.14057979 -0.35959381 -1.2128235 2032678
-0.046398714 -0.35882348 -1.2020633 5254691
-0.042801723 -0.35888678 -1.2023456 5060146
-0.04149951 -0.35169762 -1.2027407 5191736
-0.039204746 -0.35895002 -1.2026279 4994869
-0.037902519 -0.35176092 -1.203023 5256247
-0.037225604 -0.34636378 -1.2032958 5124657
-0.033261374 -0.36266059 -1.2029479 5123886
-0.03319256 -0.35785377 -1.2031485 5124918
-0.033123747 -0.35304701 -1.2033492 5058325
-0.033037737 -0.34703851 -1.2036 5125157
-0.028396577 -0.35793817 -1.2035249 4665138
-0.028327763 -0.35313135 -1.2037256 4795693
-0.028241754 -0.34712285 -1.2039764 4994872
-0.024816796 -0.35920316 -1.203757 4272434
-0.022808939 -0.35298806 -1.2041684 4796196
-0.022246778 -0.34722835 -1.204447 5123886
-0.016320616 -0.35214055 -1.2047167 5058862
-0.016251802 -0.34733379 -1.2049174 4993322
-0.010463268 -0.36185962 -1.2047858 4403763
-0.011136442 -0.35303313 -1.205091 5059903
-0.011702493 -0.34789461 -1.2052549 4928305
-0.0068146661 -0.35831779 -1.2052186 4535337
-0.0079448521 -0.35348994 -1.2053252 4732220
-0.0032348856 -0.35958284 -1.2054508 4207144
0.0076592863 -0.35256243 -1.2065986 3085590
0.0071199983 -0.34834594 -1.2067271 3283226
0.013516635 -0.3622815 -1.2066677 3218695
0.013568245 -0.35867637 -1.2068182 3283465
0.011239067 -0.35382742 -1.2068307 3218194
0.10967708 -0.34714508 -1.2148976 4335367
0.10971149 -0.3447417 -1.214998 4006926
0.11430103 -0.35924643 -1.2147723 5456954
0.11355904 -0.35522676 -1.2148768 5322799
0.11347946 -0.34961599 -1.2150984 5059607
0.11332568 -0.34360325 -1.2153305 4400653
0.11828621 -0.36011791 -1.2150525 5586739
0.11794962 -0.35570467 -1.2152051 5585715
0.11803564 -0.34969616 -1.2154559 5454636
0.11812165 -0.34368765 -1.2157068 5255207
0.12147779 -0.36057472 -1.2152867 5913910
0.1227456 -0.35578907 -1.2155814 5848889
0.12283162 -0.3497805 -1.2158324 5980470
0.12251224 -0.34416556 -1.2160351 5716538
0.12714764 -0.35546583 -1.2159432 5848643
0.12762761 -0.3498649 -1.2162087 6506051
0.13115576 -0.35473496 -1.2162904 5651784
0.13242358 -0.3499493 -1.216585 5980238
0.1336914 -0.34516352 -1.2168798 6311000
0.13834976 -0.35486156 -1.2168549 4271917
0.13721959 -0.35003364 -1.2169615 5452863
0.13690019 -0.34441864 -1.2171643 6112079
0.14073053 -0.35610545 -1.2169929 3148580
0.14162734 -0.3493098 -1.2173399 4598306
0.14210156 -0.34410948 -1.2175887 4930092
0.14569855 -0.34417278 -1.217871 3610147
-0.061499029 -0.36141562 -1.2057819 4402732
-0.061429948 -0.35658979 -1.2059834 5189429
-0.061291769 -0.34693813 -1.2063864 5715767
-0.057887793 -0.36147916 -1.2060654 5058849
-0.057818711 -0.35665333 -1.2062669 5320498
-0.057749614 -0.35182753 -1.2064683 5453357
-0.057680532 -0.34700167 -1.2066698 5650235
-0.053072825 -0.36156386 -1.2064433 5320995
-0.053003743 -0.35673803 -1.2066448 5387307
-0.052934647 -0.35191223 -1.2068462 5453860
-0.052865565 -0.34708637 -1.2070477 5454900
-0.048664868 -0.36204368 -1.2067728 5320235
-0.048188776 -0.3568227 -1.2070225 5256745
-0.048119694 -0.35199693 -1.207224 5191472
-0.048050612 -0.34717107 -1.2074256 5127222
-0.043373808 -0.35690746 -1.2074004 5125932
-0.043700218 -0.35167241 -1.2075872 5127223
-0.04323563 -0.3472558 -1.2078034 5127734
-0.038232446 -0.36222723 -1.2075915 4797752
-0.038558841 -0.35699216 -1.2077783 5125927
-0.039676219 -0.35093868 -1.2079357 5191257
-0.039641678 -0.34852576 -1.2080364 5125702
-0.016684234 -0.34289584 -1.2100831 4928039
-0.010717347 -0.3466211 -1.2104044 4731697
-0.011869267 -0.34298053 -1.210461 4732450
-0.0060405433 -0.35635746 -1.2103794 4469301
-0.0067854673 -0.3523218 -1.2104843 4534579
-0.0071233884 -0.34789106 -1.2106375 4402995
-0.007071577 -0.34427166 -1.2107885 4270892
-0.0013119355 -0.36247444 -1.2105054 3943731
-0.0024465919 -0.35762739 -1.2106123 4075312
-0.0023775101 -0.35280162 -1.2108138 3877421
-0.0023084208 -0.34797576 -1.2110153 3810088
-0.0022393316 -0.34314993 -1.2112168 3613219
0.0022992864 -0.36253798 -1.2107887 3548199
0.0023683757 -0.35771212 -1.2109902 3349541
0.0024374574 -0.35288635 -1.2111917 3349287
0.0025065467 -0.34806049 -1.2113931 3481122
0.0021686256 -0.34362975 -1.2115463 3546145
0.0071142539 -0.36262268 -1.2111666 3020556
0.0071833432 -0.35779685 -1.2113681 2823695
0.010725483 -0.36268619 -1.21145 3021316
0.010777295 -0.35906681 -1.2116011 3217419
0.1241708 -0.34416699 -1.2211862 5913672
0.12776475 -0.34543696 -1.2214192 6112840
0.13218424 -0.3451125 -1.2217823 6114390
0.1386157 -0.34442109 -1.2223197 5783114
0.14320615 -0.36018977 -1.2220428 1835801
0.14327523 -0.35536397 -1.2222443 3147804
0.14212331 -0.35172337 -1.2223009 4660769
0.14568271 -0.35540631 -1.2224332 2425102
0.14656004 -0.35019243 -1.2227144 2820875
0.14822838 -0.34579697 -1.2230251 2165026
0.15144411 -0.34545133 -1.2232938 1049618
-0.087579206 -0.3457371 -1.2083694 5454131
-0.082514018 -0.35752833 -1.2082915 5387834
-0.082841456 -0.3522768 -1.2084789 5649728
-0.082606539 -0.34711581 -1.2087072 5518909
-0.078092143 -0.35800967 -1.2086222 5518908
-0.078822091 -0.35275102 -1.2087779 5453380
-0.078752786 -0.34790996 -1.2089801 5453636
-0.072514713 -0.36214301 -1.2088959 5651013
-0.072871029 -0.35890853 -1.2089992 5913151
-0.068092853 -0.36262432 -1.2092266 5323081
-0.068023548 -0.35778326 -1.2094287 5387062
-0.067936912 -0.35173193 -1.2096814 5125435
-0.067884937 -0.34810114 -1.2098329 5320482
-0.064470232 -0.36268803 -1.2095109 4796984
-0.064400941 -0.35784698 -1.209713 5255991
-0.062727362 -0.35343769 -1.2100246 5386551
-0.06343998 -0.34696877 -1.2102309 5519159
-0.0074213594 -0.34311199 -1.2148238 3877157
0.14571086 -0.36154327 -1.2262021 1245965
0.14819524 -0.35674471 -1.2265937 2490625
0.14824721 -0.35311392 -1.2267454 2687236
0.15150197 -0.35075 -1.2270991 1639684
0.15561372 -0.34476951 -1.2276676 2295560
-0.092612803 -0.36101305 -1.2123703 5255468
-0.092953116 -0.35655081 -1.2125244 5451812
-0.091671228 -0.35171205 -1.2128224 5321774
-0.09160167 -0.34685194 -1.2130253 5322545
-0.088173538 -0.36149621 -1.212702 5321270
-0.08810395 -0.35663617 -1.212905 5649447
-0.088034377 -0.351776 -1.2131079 5518898
-0.086735129 -0.34572226 -1.2134566 5519927
-0.087912619 -0.3432709 -1.2134629 5454901
-0.082025141 -0.35552776 -1.2134314 5584190
-0.081885979 -0.34580755 -1.2138373 5585214
-0.083063483 -0.34335619 -1.2138436 5783358
-0.077193394 -0.35682809 -1.2137612 5453633
-0.077123821 -0.35196793 -1.2139641 5257293
-0.07785666 -0.34668866 -1.2141206 5388610
-0.079426616 -0.34342015 -1.214129 5652287
-0.073556542 -0.35689205 -1.2140466 4995391
-0.073486954 -0.35203189 -1.2142495 5060171
-0.07343477 -0.34838688 -1.2144017 5322295
-0.068690002 -0.35576236 -1.2144779 5059379
-0.06855084 -0.34604216 -1.2148837 5451562
-0.065018356 -0.35339624 -1.2148647 5387070
-0.064913988 -0.34610611 -1.2151692 5520438
0.14827433 -0.36200982 -1.2314061 2097921
0.1507163 -0.36083746 -1.231647 2688004
0.15199816 -0.35599869 -1.2319452 2557185
0.15326263 -0.35237497 -1.2321924 1902593
0.15572199 -0.34998751 -1.2324841 2296582
-0.097470015 -0.36175889 -1.216975 5387313
-0.097382694 -0.35565999 -1.2172296 5583937
-0.094931185 -0.35448304 -1.2174716 5518384
-0.094878793 -0.35082367 -1.2176243 5453103
-0.093591899 -0.34596595 -1.2179235 5256242
-0.077753037 -0.34502456 -1.2192161 5455425
-0.074119389 -0.34630853 -1.2194517 5454142
0.15454295 -0.36009187 -1.2370001 2952201
0.15582982 -0.35523412 -1.2372993 2624263
0.15833375 -0.35039783 -1.2376941 2689798
0.15838611 -0.34673849 -1.2378469 2622467
-0.10072389 -0.3621183 -1.2217225 5650241
-0.10065378 -0.35722017 -1.2219269 5978199
-0.098140091 -0.35236499 -1.2223232 5650748
-0.098069966 -0.34746686 -1.2225277 5585471
-0.09560889 -0.34628534 -1.2227706 5322037
0.15958509 -0.36179829 -1.24235 4334618
0.15965521 -0.35690013 -1.2425544 3609359
0.16094711 -0.35202348 -1.2428548 3148044
0.16101722 -0.34712532 -1.2430593 2754310
0.16447221 -0.36188427 -1.2427335 5127198
0.16414091 -0.35657075 -1.242923 4665885
0.16935931 -0.36197025 -1.243117 5520180
0.17424643 -0.3620562 -1.2435005 4598842
0.17913355 -0.36214218 -1.2438841 3612707
0.18279889 -0.36220667 -1.2441717 3544849
-0.10380971 -0.36091617 -1.2255428 6305867
-0.10127065 -0.35481754 -1.2259916 5716816
-0.10121788 -0.35113251 -1.2261454 5716038
-0.099921972 -0.3462407 -1.2264467 5585217
0.16590494 -0.35951769 -1.246959 5126950
0.16474968 -0.35458276 -1.2470679 4465693
0.16480246 -0.35089773 -1.2472217 4136981
0.16527545 -0.34640098 -1.2474419 3742476
0.16958165 -0.35958236 -1.2472475 5257789
0.1696344 -0.35589734 -1.2474014 5192002
0.16929036 -0.35138622 -1.2475574 5389101
0.16854951 -0.34604904 -1.2477154 4600086
0.17448395 -0.35966861 -1.2476321 4927816
0.17453671 -0.35598359 -1.247786 5193801
0.17460707 -0.3510702 -1.2479912 5388596
0.17938626 -0.35975486 -1.248017 3876139
0.17943901 -0.35606983 -1.2481707 4271915
0.17950937 -0.35115644 -1.2483759 4863269
0.17956212 -0.34747142 -1.2485298 5125164
0.18468538 -0.36066717 -1.2483996 3740698
0.18434134 -0.35615608 -1.2485554 3675419
0.18399729 -0.35164496 -1.2487116 3874567
0.18323886 -0.34753609 -1.2488183 4336678
0.18877061 -0.36073902 -1.2487202 4136727
-0.107117 -0.36248523 -1.230237 6044747
-0.10458574 -0.35759613 -1.230636 5980753
-0.10451514 -0.35266373 -1.2308419 5782861
-0.10196623 -0.34654152 -1.2312924 5847368
-0.10191327 -0.34284219 -1.2314469 5716804
0.17116538 -0.35134646 -1.2527272 6175019
0.17121834 -0.34764713 -1.2528816 5387550
0.17046286 -0.34311134 -1.253006 4533263
0.17490932 -0.34771204 -1.2531713 5323305
0.17497994 -0.34277967 -1.2533772 5650976
0.17984827 -0.34656551 -1.2536089 5322803
0.18592925 -0.35160619 -1.2538857 3542035
0.1847519 -0.34788519 -1.2539437 4004647
0.18357453 -0.34416428 -1.2540016 4798765
0.18953197 -0.35783654 -1.2539181 4005139
0.18837225 -0.35288253 -1.2540275 3542538
-0.11411306 -0.36151308 -1.2347423 5913658
-0.11529498 -0.3577778 -1.2348005 5847353
-0.10957858 -0.36118013 -1.2351149 5914694
-0.10868432 -0.35624322 -1.2353863 5718090
-0.10903102 -0.35169712 -1.2355435 5717086
-0.10855436 -0.34716558 -1.2357652 5979220
-0.10767192 -0.34305388 -1.2360021 5847872
-0.1053081 -0.35052446 -1.2358859 6044509
-0.10525493 -0.34681091 -1.2360409 6175565
0.18013468 -0.34564063 -1.2586892 5520954
0.18629231 -0.34698713 -1.259122 3877164
0.19110852 -0.355739 -1.259148 3807240
0.19034423 -0.35159838 -1.2592556 3346209
0.18999751 -0.34705231 -1.2594129 3216682
0.19005066 -0.34333876 -1.2595679 3874341
0.19514275 -0.36158812 -1.2592299 4794152
0.19479603 -0.35704204 -1.2593871 4204059
0.19363184 -0.3520689 -1.2594969 3676962
0.19924782 -0.3624858 -1.2595185 4465457
0.19850123 -0.35710722 -1.2596779 4269102
-0.12443286 -0.35839191 -1.2390716 5190959
-0.11988091 -0.35805768 -1.2394457 5452333
-0.11856994 -0.35310903 -1.2397505 5649974
-0.11851656 -0.34938118 -1.2399061 5781563
-0.11450243 -0.35773799 -1.2398846 5717309
-0.11485049 -0.35317445 -1.2400423 5717064
-0.11477932 -0.34820402 -1.2402499 5913410
-0.11470819 -0.34323353 -1.2404574 5846307
-0.11121999 -0.35945296 -1.2400749 5783622
-0.1110421 -0.34702682 -1.2405937 5912647
-0.11015627 -0.34289929 -1.2408315 6043948
0.194006 -0.3486644 -1.2646846 3413793
0.19325653 -0.34326524 -1.2648445 3874595
0.19765428 -0.35370034 -1.264769 4070168
0.19772542 -0.34872988 -1.2649765 3873817
0.19779658 -0.34375942 -1.2651839 3743522
0.20212319 -0.35916498 -1.2649009 4335417
0.20137373 -0.35376576 -1.2650609 4266267
0.20144486 -0.34879526 -1.2652683 3937561
0.20275584 -0.34384665 -1.2655731 3676957
-0.12445951 -0.35583279 -1.2441933 5190692
-0.12442377 -0.35333803 -1.2442975 5322284
-0.12197036 -0.35587656 -1.2443887 5518635
-0.1219168 -0.35213447 -1.2445449 5584432
-0.1201919 -0.34758994 -1.2448661 5518131
0.2041586 -0.35787076 -1.2701346 4531502
0.20423004 -0.35288125 -1.2703428 4399642
0.2042836 -0.34913915 -1.2704991 4267804
0.20783871 -0.36167854 -1.2702713 4928557
0.20789227 -0.35793644 -1.2704276 4861225
0.20796373 -0.35294694 -1.2706358 4795165
0.20803514 -0.34795743 -1.2708442 4533028
0.20810658 -0.34296796 -1.2710525 4336427
0.21157241 -0.36174423 -1.2705643 4993053
0.21162596 -0.35800213 -1.2707206 4992809
0.21171525 -0.35176525 -1.270981 4795425
-0.12790646 -0.35986146 -1.2487766 4993832
-0.12530027 -0.35239264 -1.2492863 5518879
-0.12526442 -0.34988838 -1.2493908 5387282
-0.12272994 -0.34742808 -1.2496915 5255468
-0.12019549 -0.34496778 -1.249992 5387321
0.21204905 -0.35582241 -1.2758623 4926504
0.21213867 -0.34956178 -1.2761238 4598817
0.21221037 -0.34455323 -1.2763329 4533545
-0.12614053 -0.34891441 -1.2543807 5255966
-0.12359643 -0.34644482 -1.2546825 4993330
0.21616271 -0.35870785 -1.2810907 4992310
0.21623468 -0.35368031 -1.2813007 4795172
0.21630666 -0.34865275 -1.2815105 4402221
0.21637863 -0.34362522 -1.2817204 4402197
0.22116095 -0.36005297 -1.2814319 5057597
0.21999687 -0.35374644 -1.2815958 5122619
0.22006884 -0.34871891 -1.2818058 4270407
0.22012281 -0.34494826 -1.2819632 4727609
-0.12971456 -0.36049366 -1.2586473 4863533
-0.12962425 -0.3541854 -1.2589107 5388329
-0.12701635 -0.34792149 -1.2593716 5191467
-0.12696217 -0.34413654 -1.2595296 5258280
0.22159967 -0.35910219 -1.2865251 5319246
0.22291265 -0.35533941 -1.286782 5384239
0.2229849 -0.3502928 -1.2869927 4138806
0.22222397 -0.3448109 -1.287155 4793118
0.22619119 -0.36086559 -1.2868172 4728615
0.22543027 -0.35538369 -1.2869796 5121316
0.22550251 -0.35033709 -1.2871902 4270116
-0.13060027 -0.35952905 -1.2636361 5126195
-0.1304915 -0.35193062 -1.2639533 5321777
-0.13043711 -0.34813142 -1.264112 5454903
-0.13038272 -0.34433222 -1.2642705 5716520
0.22833827 -0.35950989 -1.292062 4794152
0.22841081 -0.35444427 -1.2922735 4532251
0.22721976 -0.34935644 -1.2923858 4597528
0.22602874 -0.34426862 -1.2924982 4597511
0.23084724 -0.36082074 -1.2922075 4531500
-0.13407692 -0.36231428 -1.2682674 5519160
-0.13400413 -0.35722962 -1.2684797 5388602
-0.13394955 -0.35341614 -1.268639 5256772
-0.13387676 -0.34833151 -1.2688512 5454140
-0.13255386 -0.34454036 -1.26911 5716774
0.23131959 -0.35984194 -1.2973044 4663839
0.23137419 -0.35602847 -1.2974637 4467475
0.23017868 -0.35092151 -1.2975764 4401428
0.22898318 -0.34581459 -1.2976891 4532235
0.23385619 -0.35988656 -1.2975035 4336927
0.23391078 -0.35607308 -1.2976627 4337428
-0.13766947 -0.35903791 -1.2741398 5453366
-0.13759634 -0.35393041 -1.274353 5255996
-0.13752323 -0.34882295 -1.2745663 5387051
