# .PCD v0.7 - Point Cloud Data file format
VERSION 0.7
FIELDS x y z rgba
SIZE 4 4 4 4
TYPE F F F U
COUNT 1 1 1 1
WIDTH 1128
HEIGHT 1
VIEWPOINT 0 0 0 1 0 0 0
POINTS 1128
DATA ascii
0.36653674 0.040768474 -1.4903746 7943470
0.36376047 0.047567219 -1.4895403 8666923
0.36351454 0.05281812 -1.488292 8800311
0.36294353 0.042772576 -1.4922121 8074284
0.36158848 0.046286479 -1.4919994 8273447
0.36151826 0.051375329 -1.4908253 8601906
0.35939944 0.035685942 -1.4953656 6631700
0.36091149 0.039680511 -1.4944552 7222572
0.36009204 0.043238282 -1.4945705 7680814
0.35806227 0.048523337 -1.4942528 8338730
0.3579551 0.051843569 -1.4942498 8404532
0.35684526 0.041847095 -1.4963908 7157295
0.35656416 0.045463845 -1.4968365 7485477
0.35560942 0.050855786 -1.4971764 7944747
0.35450208 0.040045917 -1.5004071 6433306
0.35589421 0.043697536 -1.5006368 6762008
0.35453999 0.043412209 -1.5052911 5973021
0.35236359 0.049466774 -1.4990091 7681830
0.35193467 0.046480775 -1.5022644 6894097
0.35070264 0.039485395 -1.5053666 5642796
0.3514899 0.042933866 -1.5074234 5445174
0.35028148 0.036779761 -1.5076699 4526115
0.34992862 0.052365795 -1.5000485 7615787
0.3490839 0.046938956 -1.5046685 6497801
0.34971344 0.050868511 -1.5016809 7418149
0.3490957 0.05513002 -1.5030366 7484461
0.34288633 0.051765144 -1.5044711 7155990
0.34045494 0.054678872 -1.5055267 7155739
0.33720267 0.05324775 -1.5073966 6629899
0.33760643 0.055140808 -1.5079577 6695437
0.32628214 0.048249602 -1.5129412 4918823
0.3187623 0.041603416 -1.5114038 4723713
0.31936896 0.044196948 -1.5132393 4395786
0.3215996 0.047253206 -1.5151006 4854044
0.32122082 0.053133667 -1.5148206 5115932
0.31576151 0.045602933 -1.5171602 4985628
0.31637847 0.048496217 -1.5180175 5048872
0.31762856 0.054863006 -1.5177625 4788746
0.31436408 0.053356826 -1.5196857 4591110
0.21626246 0.053867579 -1.5154415 4460545
0.21624464 0.05323416 -1.5175921 4263169
0.20296478 0.03763935 -1.3959354 8143660
0.20477599 0.046409786 -1.3973612 8340541
0.20537972 0.049333289 -1.3978364 8602422
0.20635307 0.053805873 -1.3995527 7682867
0.20474041 0.045138612 -1.4016767 8209731
0.2054162 0.048308358 -1.402616 8275250
0.20631742 0.05253464 -1.4038683 7617579
0.20336187 0.037845731 -1.403035 7879469
0.20470476 0.043867394 -1.4059925 7945783
0.20538062 0.047037154 -1.4069316 7814707
0.20628178 0.051263481 -1.4081841 7485232
0.20718288 0.055489749 -1.4094362 7221284
0.20557916 0.04714036 -1.4104815 7879725
0.20632416 0.050450385 -1.4122443 7747369
0.20692194 0.053162009 -1.4134388 7681833
0.21155369 0.050871164 -1.514818 4392458
0.21245492 0.055097461 -1.5160702 4460291
0.21153593 0.050235569 -1.5169756 4195590
0.21228099 0.053545624 -1.5187387 4262658
0.19527191 0.037573516 -1.3730686 8209193
0.19861686 0.041688293 -1.3746461 8406851
0.19856185 0.046228245 -1.3759422 8605000
0.19659019 0.051378667 -1.3773168 8867119
0.19726169 0.054249883 -1.3793486 8669999
0.1976769 0.036172211 -1.3777198 8142903
0.1985811 0.040412828 -1.3789763 8209990
0.19948536 0.044653475 -1.3802329 8276042
0.199431 0.049196392 -1.381532 8801588
0.19841975 0.054050177 -1.3828778 8538422
0.19854534 0.039137304 -1.3833065 8013371
0.19944954 0.043377921 -1.3845631 7752018
0.20035374 0.047618553 -1.3858197 8539195
0.201258 0.0518592 -1.3870764 8473645
0.19850063 0.037542939 -1.3887193 8341046
0.1994049 0.041783571 -1.3899759 8340287
0.20030916 0.046024144 -1.3912326 8471100
0.20143932 0.051324964 -1.3928032 8273973
0.19943839 0.040648848 -1.3951325 8209197
0.20026439 0.044429779 -1.3966453 8274495
0.20183784 0.051532 -1.3999269 9126195
0.19932443 0.038913667 -1.399719 8011819
0.20022857 0.043154225 -1.4009756 8143689
0.19907147 0.036896855 -1.4026525 7879462
0.20020175 0.04219763 -1.4042233 7945789
0.20342147 0.055497229 -1.415815 7879207
0.20436132 0.036503166 -1.5096476 3934211
0.2054916 0.041804016 -1.5112182 4260614
0.20654356 0.046645164 -1.5130452 4325645
0.20729113 0.049966395 -1.514814 4391693
0.2054559 0.040528476 -1.5155487 4195603
0.20658618 0.045829266 -1.5171193 4129299
0.20741194 0.049610257 -1.5186319 4064519
0.20861173 0.055051833 -1.5210291 4131841
0.20542008 0.039252937 -1.5198789 3934474
0.20655036 0.044553772 -1.5214496 4130578
0.20745462 0.048794419 -1.5227063 4065798
0.20835888 0.053035051 -1.5239627 4196865
0.20376801 0.038082451 -1.5241295 4328198
0.20332521 0.04352513 -1.5263362 4459275
0.20551312 0.048118412 -1.52737 4589826
0.20641875 0.052366197 -1.5286286 4589314
0.2015391 0.038185477 -1.5281217 4131847
0.18960488 0.038929462 -1.3686873 8143142
0.19073379 0.043944985 -1.3713584 8406594
0.19187176 0.049281538 -1.3729398 8736828
0.19278204 0.053550854 -1.3742049 8931123
0.1974839 0.03796187 -1.5295603 4132867
0.19840324 0.042552128 -1.5297356 4328460
0.19954109 0.047888741 -1.5313169 4460036
0.20067906 0.053225309 -1.5328982 4851458
0.18488193 0.037097558 -1.3631721 7748672
0.18579525 0.041381136 -1.3644415 8011820
0.18669963 0.045342594 -1.3668044 8340033
0.1880697 0.051767975 -1.3687081 8734276
0.18668157 0.044698387 -1.3689914 8405568
0.1878233 0.050052851 -1.3705779 8734530
0.18896502 0.055407301 -1.3721646 8995638
0.19342726 0.037728831 -1.5310041 4133377
0.19456899 0.04308337 -1.5325907 4328715
0.19548231 0.047366872 -1.53386 4460295
0.19662404 0.052721411 -1.5354466 4787457
0.1938659 0.039226428 -1.5338259 4131845
0.19455087 0.042439133 -1.5347778 4328462
0.19546431 0.046722665 -1.5360471 4592149
0.19637764 0.051006272 -1.5373164 4722689
0.18013459 0.040803283 -1.3556222 6894363
0.18311548 0.054783076 -1.3597647 7285821
0.18010736 0.03983292 -1.3589164 7288865
0.18102455 0.044134393 -1.3601911 7550998
0.18186224 0.047969609 -1.3617254 7749917
0.18285894 0.05273734 -1.3627403 8276276
0.18191457 0.047465503 -1.36476 8274991
0.18274927 0.05119285 -1.3666604 8603711
0.18885422 0.039278075 -1.5354548 4132355
0.18976229 0.043256104 -1.5378275 4262418
0.19067955 0.047557592 -1.5391022 4329506
0.19159669 0.051859081 -1.5403767 4724225
0.18905622 0.039383054 -1.5390677 4394243
0.18951482 0.041533828 -1.5397049 4260869
0.19089067 0.047986031 -1.541617 4133644
0.19157851 0.051212162 -1.5425729 4724225
0.17655253 0.044341177 -1.3516186 6300425
0.17839301 0.052972764 -1.3541763 5842713
0.17514181 0.036785737 -1.3533728 6763807
0.17630428 0.042613208 -1.3535025 6695953
0.17721546 0.04660441 -1.3558831 6762258
0.17813563 0.050920218 -1.3571619 6500131
0.17898226 0.05498451 -1.3579669 6499125
0.17833847 0.051025584 -1.3607868 7618601
0.18456554 0.03795141 -1.5365993 4130561
0.18454725 0.037302375 -1.5388027 4196097
0.1856854 0.042264372 -1.5418702 4262405
0.18675911 0.047299474 -1.5433624 4263176
0.18774998 0.051758528 -1.5454822 4789505
0.16917181 0.038830757 -1.3483657 6368792
0.17009664 0.043168008 -1.349651 6235402
0.17148387 0.049673885 -1.3515788 6037512
0.17425597 0.053160846 -1.3523533 5774862
0.17130172 0.038363516 -1.3519751 6631710
0.17176342 0.040528566 -1.3526165 6696728
0.18070799 0.037796542 -1.5417045 4261889
0.18232381 0.0453742 -1.5439501 4327681
0.1768685 0.038286299 -1.544621 4327682
0.1791383 0.042388678 -1.5465181 4327682
0.1803782 0.046894789 -1.5479896 4590338
0.18224716 0.051734537 -1.5498309 4853505
0.1800741 0.052185059 -1.5535629 4919041
0.16251206 0.043785691 -1.3384485 6103817
0.16321886 0.047385424 -1.3383043 5706502
0.16415823 0.052075788 -1.3384831 5178371
0.16153586 0.03778322 -1.3427238 6368778
0.16246605 0.04214555 -1.3440166 6169869
0.16339624 0.046507865 -1.3453093 5773830
0.16432643 0.05087015 -1.3466017 5708292
0.16174084 0.037889704 -1.346388 6499605
0.1640662 0.048795491 -1.3496195 5905414
0.1720736 0.039056554 -1.5477304 4327172
0.17277122 0.042328328 -1.5486997 4262147
0.17390633 0.046797127 -1.5536565 4459796
0.17475605 0.050686568 -1.5552127 4526600
0.17575753 0.055193678 -1.5573554 4659713
0.15984452 0.051069051 -1.3378612 5442051
0.16077775 0.055445656 -1.3391581 5249539
0.15701711 0.036951885 -1.3373225 6432793
0.15771711 0.040234327 -1.338295 6366985
0.15887433 0.045375973 -1.3410335 5971482
0.15965819 0.049242601 -1.3413693 5576972
0.16051674 0.053364187 -1.3421856 5380612
0.16118896 0.055659339 -1.3465103 5709317
0.16830564 0.039682537 -1.5515308 4261894
0.16915798 0.043584719 -1.5530921 4262407
0.17029679 0.048068166 -1.5580649 4000787
0.17099679 0.051350653 -1.5590376 4132869
0.15295279 0.037972927 -1.3336568 6432795
0.16371036 0.03738077 -1.5504224 4392451
0.16392601 0.037818134 -1.5529896 4197124
0.16484374 0.041548669 -1.5565325 4000775
0.16600788 0.046817258 -1.5589062 4524044
0.16716588 0.051865697 -1.5620271 5900034
0.14742434 0.036076233 -1.33269 6368544
0.15912867 0.038564384 -1.5561473 4065538
0.16012233 0.042456552 -1.5605639 5969673
0.16102231 0.046409026 -1.5628772 6694416
0.16190255 0.050133258 -1.5656941 7816469
0.15535963 0.039171293 -1.5600004 6429961
0.15597588 0.041676626 -1.5623796 7224851
0.15902245 0.055386603 -1.5688976 9199638
0.15120894 0.038370788 -1.5618153 7817502
0.3154282 0.037897199 -1.5457408 8998480
0.31285852 0.037828982 -1.5458962 8866895
0.13172379 0.037553392 -1.5592862 7155741
0.12535387 0.046452843 -1.5645574 6763808
0.36511618 0.037930124 -1.5352145 8669226
0.36124456 0.037827305 -1.5354484 8866615
0.35608238 0.037690207 -1.5357604 8933165
0.35092026 0.037553176 -1.5360724 8737584
0.35052186 0.042856157 -1.5389594 9196311
0.34575814 0.037416086 -1.5363843 9196595
0.34060282 0.038417816 -1.5373094 9260832
0.34191376 0.041868456 -1.5390707 9457964
0.33672434 0.037176169 -1.5369303 9326137
0.32771784 0.041491441 -1.5399286 9393484
0.32125151 0.039042547 -1.5390925 9130328
0.32255572 0.041354351 -1.5402406 9329748
0.31783277 0.042747177 -1.5413439 9130575
0.31092721 0.038768359 -1.5397165 8470858
0.31223816 0.042218991 -1.5414777 8867655
0.3070488 0.037526771 -1.5393373 8077627
0.30318397 0.038562775 -1.5401844 7880251
0.14576566 0.03893704 -1.552152 7551537
0.14145932 0.038063698 -1.5520031 7352885
0.14190766 0.041111812 -1.5536121 7352375
0.14063075 0.04335513 -1.5549163 7485242
0.1367251 0.037558362 -1.5520848 7286832
0.13674554 0.040974714 -1.5539241 7287347
0.13676596 0.044391081 -1.5557634 7484213
0.13199082 0.037053198 -1.5521663 6959129
0.13160381 0.04425399 -1.5560753 7156001
0.13120314 0.049177356 -1.558758 7289890
0.13036776 0.053330034 -1.561058 7815472
0.12683323 0.037675329 -1.5528871 6958869
0.12642121 0.040700592 -1.554548 6893080
0.12644166 0.044116952 -1.5563873 6828056
0.12689677 0.048303962 -1.5586091 6895125
0.12649614 0.053227209 -1.5612921 7420714
0.12171194 0.044370949 -1.5568775 6629146
0.12130672 0.048534989 -1.5591516 6564379
0.12132716 0.051951349 -1.5609908 6894374
0.1161446 0.048397891 -1.5594636 6301706
0.11616504 0.051814251 -1.5613029 6499603
0.11226618 0.047156312 -1.5590844 6299677
0.35638297 0.044214107 -1.5335611 8998686
0.35812825 0.047307871 -1.5350977 8735015
0.35162449 0.042563997 -1.5330278 8934184
0.35209268 0.048671402 -1.5362834 9064473
0.35167915 0.051707827 -1.5379505 9064758
0.34645015 0.043569393 -1.5339563 9261872
0.34604347 0.047748901 -1.5362384 9327661
0.34607077 0.052320838 -1.5386997 9392937
0.33998054 0.044540368 -1.534963 9457188
0.34128958 0.046860762 -1.5361153 9392438
0.33608788 0.043294214 -1.5345825 9392964
0.33220202 0.043191008 -1.5348173 9328207
0.32963878 0.047694117 -1.5374352 9262669
0.32575285 0.047590971 -1.5376701 9393741
0.32100576 0.047845908 -1.5381621 9327952
0.3192969 0.050847918 -1.5399076 9393236
0.31539738 0.04845874 -1.5389117 9262156
0.31541789 0.051887728 -1.5407578 9393487
0.31150472 0.047212593 -1.5385312 8999234
0.31152517 0.050641514 -1.5403773 9256776
0.30759835 0.043680459 -1.53692 8473914
0.30761886 0.047109447 -1.538766 8736311
0.30764621 0.051681325 -1.5412275 9064247
0.30637139 0.055075891 -1.5431516 9393973
0.30368507 0.039005376 -1.5346935 7616556
0.30198085 0.042769529 -1.5368488 7880760
0.29765862 0.041892849 -1.5366997 7353916
0.15607685 0.044228092 -1.5485402 7877904
0.1560905 0.046514064 -1.549771 7942928
0.15612468 0.052228957 -1.5528477 7877922
0.15258628 0.038040578 -1.5454671 7682829
0.15175462 0.043351524 -1.5483909 7681051
0.15220463 0.046410926 -1.5500058 7746343
0.15223879 0.052125759 -1.5530825 7747603
0.14697564 0.038272433 -1.5460114 7616826
0.14743701 0.043236874 -1.5486518 7616307
0.14659625 0.04702387 -1.5507551 7682615
0.14705768 0.051988199 -1.5533956 7879953
0.14222395 0.037765399 -1.5460933 7484717
0.1422832 0.047671258 -1.5514263 7681835
0.14187649 0.051850572 -1.5537088 7944980
0.13669536 0.051713012 -1.5540218 7420978
0.13280264 0.050466858 -1.5536413 7289378
0.12495571 0.037687704 -1.5473423 7155983
0.12106985 0.037584566 -1.5475771 7155722
0.12109718 0.042156443 -1.5500385 6892304
0.11982241 0.045551017 -1.5519629 6694419
0.11591601 0.042018883 -1.5503516 6892044
0.11594337 0.04659076 -1.5528131 6497549
0.11073488 0.041881263 -1.5506648 7220264
0.11076224 0.0464532 -1.5531261 6562849
0.11036009 0.051394671 -1.5558186 6299420
0.11081007 0.054454073 -1.5574335 6301979
0.10685584 0.042921074 -1.551515 7415852
0.10687634 0.046350002 -1.5533609 6890790
0.1069037 0.050921947 -1.5558223 6430744
0.10296994 0.042817876 -1.5517497 7745061
0.10342452 0.04663936 -1.5537747 7218722
0.36055326 0.04628066 -1.528671 8867393
0.35624945 0.051136658 -1.5316093 8801561
0.34845608 0.052076697 -1.5326982 9392935
0.3419559 0.051904105 -1.5330912 9392441
0.34154087 0.05495169 -1.5347642 9458749
0.3367489 0.050618812 -1.5327878 9327680
0.33677632 0.055207506 -1.5352583 9458251
0.33284873 0.050515227 -1.5330234 9131592
0.33157611 0.055069409 -1.5355724 9393498
0.32637602 0.05493132 -1.5358868 9590097
0.32161146 0.055187128 -1.5363805 9524050
0.30424786 0.04975576 -1.5347519 8407593
0.30427533 0.054344453 -1.5372224 8802857
0.29896533 0.035851635 -1.5276551 6301977
0.29986179 0.040845715 -1.5302788 7025197
0.30034775 0.049652226 -1.5349877 8143420
0.30037516 0.054240875 -1.5374581 8604469
0.29506522 0.03574805 -1.5278907 5777189
0.29509264 0.04033675 -1.5303611 6434348
0.29468906 0.045296326 -1.5330635 7157809
0.29644758 0.049548648 -1.5352234 7881024
0.29560608 0.053731903 -1.5375402 8273732
0.29119945 0.041380368 -1.5312145 6369047
0.29122001 0.044821858 -1.5330672 6830363
0.29124749 0.049410559 -1.5355376 7419180
0.29127491 0.053999268 -1.538008 7944252
0.28775555 0.045112185 -1.5334827 6434827
0.28778297 0.049700879 -1.535953 7025182
0.28780586 0.0535248 -1.5380118 7485743
0.28214723 0.049168885 -1.5360878 6368547
0.28217465 0.053757586 -1.538558 6959914
0.18982369 0.04327634 -1.5398132 7810336
0.19113743 0.045605198 -1.5409697 7679274
0.18588239 0.036289774 -1.5363432 7352341
0.18723735 0.04550162 -1.5412055 7679259
0.1806891 0.037298828 -1.5372751 7353618
0.17941648 0.041853018 -1.5398241 7681286
0.17548892 0.037160739 -1.5375894 7550224
0.17594746 0.041378558 -1.5398278 7616003
0.16985771 0.037393525 -1.5381356 7747624
0.17031622 0.041611344 -1.5403742 7549967
0.16904363 0.046165533 -1.5429231 7680527
0.16906422 0.049607031 -1.5447758 7681045
0.16639552 0.038066268 -1.5387571 7747366
0.16641611 0.041507766 -1.5406098 7419165
0.16644356 0.046096459 -1.5430802 7549460
0.166471 0.050685152 -1.5455507 7418136
0.16249537 0.03796269 -1.5389926 7550504
0.16251597 0.04140418 -1.5408454 7223085
0.16254342 0.045992874 -1.5433159 7353880
0.16257089 0.050581582 -1.5457864 7222297
0.16259831 0.055170275 -1.5482568 7616039
0.15729523 0.037824601 -1.5393069 7617834
0.15731585 0.041266151 -1.5411597 7552562
0.15777433 0.04548391 -1.543398 7617299
0.15780637 0.05083739 -1.5462803 7747093
0.15869817 0.05506669 -1.5484923 7747120
0.15082246 0.042240702 -1.5421703 7813663
0.15343627 0.044604063 -1.5432483 7747336
0.15217742 0.051452599 -1.5470325 7812381
0.14827728 0.051349014 -1.5472683 7748652
0.11569393 0.036719941 -1.5418212 7485192
0.11571449 0.040161431 -1.543674 7286537
0.11049378 0.036581852 -1.5421355 7946016
0.11051434 0.040023342 -1.5439883 7616035
0.10659364 0.036478266 -1.5423712 8142132
0.10661423 0.039919756 -1.5442239 7945520
0.1066348 0.043361247 -1.5460767 7680559
0.10399354 0.036409251 -1.5425283 8208184
0.10271409 0.039816238 -1.5444596 8209197
0.10273468 0.043257728 -1.5463125 7944231
0.1014621 0.047811925 -1.5488614 7614242
0.10279644 0.053582266 -1.5518709 6693401
0.097513914 0.039678082 -1.5447739 8603431
0.097541392 0.044266783 -1.5472443 8273955
0.09756881 0.048855476 -1.5497147 7877662
0.097596288 0.053444177 -1.5521851 7351825
0.092313766 0.039540052 -1.5450881 8997675
0.092341244 0.044128694 -1.5475587 8668200
0.092799723 0.048346512 -1.5497969 8338220
0.087113619 0.039401963 -1.5454024 8998193
0.087572128 0.04361973 -1.5476408 8931882
0.081913471 0.039263874 -1.5457166 9195842
0.08237195 0.043481633 -1.5479552 9063725
0.076713294 0.039125785 -1.546031 9391678
0.076733857 0.042567275 -1.5478837 9326123
0.071513116 0.038987696 -1.5463454 9129518
0.066312969 0.038849607 -1.5466596 8868146
0.062412828 0.038746022 -1.5468951 8802360
0.29441983 0.052777909 -1.5302844 7615293
0.29041988 0.038847417 -1.5230774 5381397
0.29000992 0.043060608 -1.5253781 5909001
0.28519684 0.038708732 -1.523393 4921349
0.28522444 0.043317534 -1.5258743 5449729
0.28481448 0.047530718 -1.528175 6040584
0.28657842 0.051417634 -1.5301375 6632474
0.28130722 0.043213516 -1.526111 5054213
0.28133482 0.047822312 -1.5285922 5843220
0.2787509 0.052361779 -1.5312314 5973028
0.27483362 0.052257761 -1.531468 5578520
0.2709164 0.052153744 -1.5317048 5185046
0.26831183 0.053236634 -1.532483 4920860
0.20119637 0.03686218 -1.5286765 6694675
0.20034429 0.03991162 -1.5303833 6761520
0.20168447 0.045707271 -1.5334059 6761732
0.2003994 0.049129225 -1.5353458 7155970
0.19640636 0.036350973 -1.5287591 6957846
0.19643396 0.040959775 -1.5312405 7024398
0.1964615 0.045568578 -1.5337216 7352579
0.19648907 0.05017738 -1.5362028 7287306
0.19118342 0.03621228 -1.5290748 7219483
0.19121099 0.04082109 -1.5315559 7351819
0.19167149 0.045057364 -1.5338041 7679499
0.191273 0.051190928 -1.5371388 7548963
0.19129369 0.054647498 -1.5389997 7549726
0.18599486 0.04183463 -1.5324919 7221269
0.18601555 0.045291208 -1.534353 7613714
0.18561018 0.050272524 -1.5370672 7680271
0.18607071 0.054508805 -1.5393153 7680543
0.18209836 0.045187183 -1.5345896 7810828
0.18082017 0.049761318 -1.5371498 7614997
0.1808477 0.05437012 -1.539631 7616044
0.17427081 0.04613132 -1.5356835 7616259
0.17559719 0.049622633 -1.5374655 7484937
0.17562479 0.054231435 -1.5399468 7550480
0.17167997 0.049518615 -1.5377022 7878665
0.17083931 0.054488353 -1.5404428 7747599
0.090758383 0.053129919 -1.5456964 8404789
0.08550784 0.048382364 -1.5435307 8931883
0.086834252 0.051873669 -1.5453126 8668974
0.080284864 0.048243679 -1.5438465 9065006
0.081611276 0.051734984 -1.5456284 8867373
0.076367646 0.048139662 -1.5440831 9127988
0.076388329 0.051596299 -1.5459441 9127743
0.071137786 0.046848744 -1.5437785 8997690
0.071165323 0.051457606 -1.5462598 9193546
0.06591481 0.046710059 -1.5440941 8736061
0.065942377 0.051318921 -1.5465753 8932163
0.066402882 0.055555202 -1.5488235 9062200
0.059358537 0.041927896 -1.5420074 8670267
0.060691833 0.046571366 -1.5444098 8801088
0.060719401 0.051180229 -1.5468911 8997189
0.062045813 0.054671474 -1.5486729 9389376
0.054114878 0.038332634 -1.5404623 8733493
0.05544129 0.041823879 -1.5422442 8539197
0.055468857 0.046432681 -1.5447254 8669769
0.05548954 0.049889311 -1.5465864 8801366
0.049757808 0.037448905 -1.5403117 8667188
0.050218314 0.041685194 -1.5425599 8735033
0.05155164 0.046328664 -1.5449622 8867138
0.051572323 0.049785294 -1.546823 8736588
0.04627353 0.036972366 -1.5403153 8601405
0.046301097 0.041581176 -1.5427965 8667959
0.042356312 0.036868356 -1.540552 8536130
0.041085035 0.042594656 -1.5437325 8732979
0.037133336 0.036729671 -1.5408677 8406326
0.03191036 0.036590979 -1.5411834 8340291
0.030632198 0.041165113 -1.5437436 8538683
0.030652881 0.044621736 -1.5456045 8669743
0.030680448 0.049230538 -1.5480857 8866114
0.026687413 0.036452293 -1.5414991 8470591
0.026714951 0.041061096 -1.5439802 8538690
0.02630496 0.04527428 -1.546281 8669239
0.026763201 0.049126476 -1.5483224 8996167
0.021464437 0.036313608 -1.5418147 8670008
0.021924943 0.040549889 -1.5440627 8604229
0.021957099 0.045926817 -1.5469576 8734504
0.016241446 0.036174916 -1.5421302 8670010
0.016701967 0.040411197 -1.5443785 8735557
0.016734123 0.045788139 -1.5472732 8865839
0.017623007 0.048883766 -1.5488749 8866097
0.012344897 0.039527476 -1.544228 8670301
0.012386262 0.046440683 -1.5479499 9194267
0.0045517832 0.046232641 -1.5484233 8863806
0.0010330528 0.039995074 -1.5453254 8735042
-0.0046159625 0.041381143 -1.5464945 8471599
-0.0059010386 0.044803031 -1.5484344 8339763
-0.0085400939 0.040124893 -1.5461109 8339770
-0.0085125268 0.044733696 -1.5485922 8208193
-0.012024373 0.039648354 -1.5461144 8142904
-0.011996821 0.044257164 -1.5485959 8076857
-0.016381428 0.038764626 -1.5459641 7620418
-0.024215892 0.038556598 -1.5464375 7551021
-0.029452652 0.036113508 -1.5455127 7026712
-0.033727035 0.049056247 -1.5528059 7878956
-0.042510092 0.035766788 -1.5463016 7155470
-0.042496294 0.038071185 -1.5475423 7155970
0.28430206 0.03674569 -1.5167102 4328708
0.28168112 0.036676057 -1.5168687 4066562
0.28083736 0.04166393 -1.5196192 4461057
0.27911544 0.045857653 -1.5220076 4723722
0.2791431 0.050483212 -1.5244979 5514526
0.2764737 0.042318873 -1.5202984 4066049
0.275177 0.044596836 -1.5216227 4196353
0.27521163 0.050378814 -1.5247355 4986385
0.26996964 0.05023966 -1.5250523 4394761
0.26867992 0.053674035 -1.5269992 4592147
0.26603815 0.050135262 -1.5252899 3869444
0.26519445 0.055123076 -1.5280404 4263181
0.20830029 0.035883747 -1.5219264 5905410
0.20482412 0.038874619 -1.5237978 6300930
0.20441726 0.0438741 -1.526522 6367497
0.20575541 0.048534483 -1.528933 6368009
0.20316207 0.053090461 -1.5315818 7285274
0.20049268 0.044926129 -1.5273821 6761498
0.20054799 0.05417724 -1.5323627 7352334
0.055110812 0.054940097 -1.5436442 8801617
0.048523724 0.048984148 -1.5409273 8800569
0.04942739 0.054018386 -1.5435724 8735293
0.045902789 0.048914567 -1.5410858 8733489
0.045930415 0.053540125 -1.543576 9061431
0.042378128 0.043810688 -1.5385993 8667191
0.041971296 0.048810109 -1.5413233 8471084
0.041992038 0.052279308 -1.5431911 8602423
0.036701649 0.044045396 -1.53915 8667702
0.036729306 0.048670955 -1.5416402 8865071
0.03719151 0.052922644 -1.5438966 8799282
0.032770157 0.043940939 -1.5393875 8603700
0.031926453 0.04892882 -1.5421381 8865835
0.031954139 0.053554438 -1.5446284 8930370
0.027562737 0.049583755 -1.542817 8800069
0.026279926 0.05417455 -1.5453866 9257298
0.019672126 0.044749349 -1.540802 8669497
0.019685954 0.047062188 -1.5420471 8733481
0.021031052 0.052878916 -1.5450808 8865084
0.014430135 0.044610187 -1.5411187 8800576
0.014443979 0.046922967 -1.542364 8866608
0.015354514 0.053113632 -1.5456315 8931880
0.0091604888 0.039845414 -1.5389454 8800329
0.010491744 0.04334937 -1.5407338 8669516
0.0105194 0.047974989 -1.5432241 9127981
0.011857554 0.052635364 -1.5456351 8997652
0.0056612194 0.038981684 -1.5387415 8929605
0.0048106313 0.042813145 -1.5408696 8798793
0.0057119578 0.047461912 -1.5433069 8929855
0.0048659593 0.052064314 -1.54585 8667713
0.0012975335 0.039636619 -1.5394206 8799297
-0.001295805 0.044192597 -1.5420692 8735030
3.5464764e-05 0.047696553 -1.5438578 8602165
6.3121319e-05 0.052322179 -1.5463481 8405564
-0.0039305985 0.041810185 -1.5409825 8537146
-0.0038960129 0.047592156 -1.5440954 8405540
-0.0038683563 0.052217774 -1.5465857 8273720
-0.0065516084 0.041740604 -1.5411409 8471610
-0.0077998489 0.052113377 -1.5468233 8142410
-0.014400735 0.043844588 -1.5428612 8142646
-0.014373064 0.04847014 -1.5453515 7812665
-0.013041794 0.051974162 -1.54714 8010555
-0.018773675 0.042957641 -1.5427102 7814980
-0.018311471 0.04720939 -1.5449666 7616575
-0.018283814 0.051834948 -1.5474567 7878973
-0.02314198 0.042841636 -1.5429741 7747126
-0.023553446 0.047070175 -1.5452834 7679542
-0.023525774 0.051695794 -1.5477736 7878196
-0.028416216 0.037305914 -1.5403857 7287827
-0.028823093 0.042305402 -1.5431099 7484453
-0.028795421 0.046930961 -1.5456002 7681322
-0.028767765 0.05155658 -1.5480905 7878701
-0.034092739 0.03754063 -1.5409364 7025417
-0.034065068 0.042166181 -1.5434266 7354381
-0.034037411 0.046791807 -1.5459169 7681822
-0.032706141 0.050295763 -1.5477054 7879213
-0.039334714 0.037401408 -1.5412532 7089416
-0.039307043 0.042026967 -1.5437435 7286792
-0.039279386 0.046652585 -1.5462338 7613988
-0.03925173 0.051278137 -1.5487241 7812662
-0.038789526 0.055529892 -1.5509803 8076849
-0.045015812 0.036865175 -1.5413889 7089948
-0.044983551 0.042261675 -1.5442942 7157254
-0.044521347 0.046513371 -1.5465505 7353874
-0.04449369 0.051138982 -1.5490408 7747363
-0.044472933 0.054608181 -1.5509086 7945250
-0.04981868 0.037123032 -1.5418868 7025453
-0.049790993 0.041748591 -1.5443771 7158025
-0.049328819 0.046000347 -1.5466335 7355654
-0.048432082 0.049878173 -1.5486559 7549210
-0.053750142 0.037018642 -1.5421244 6894628
-0.053701729 0.0451134 -1.5464823 7224848
-0.057688534 0.035757817 -1.5417395 6892824
0.27956349 0.039822467 -1.5118918 3935233
0.27958435 0.043306746 -1.5137677 4197633
0.27691025 0.036268286 -1.5101752 3869185
0.27605128 0.039342135 -1.5118957 3869185
0.27520162 0.043964513 -1.5144497 3933953
0.27567738 0.050170474 -1.5177579 4393736
0.27038479 0.045384929 -1.5155751 3737604
0.27040559 0.048869208 -1.5174508 3869186
0.26558191 0.049128242 -1.517951 3607041
0.26385248 0.053340189 -1.5203497 3738625
0.2612201 0.053270288 -1.5205088 3541507
0.21901149 0.03705328 -1.5149256 2818563
0.21506292 0.03694845 -1.5151644 4393476
0.20980504 0.037970081 -1.5161077 5643266
0.20851663 0.042580821 -1.5186884 5840385
0.20584953 0.036703803 -1.5157211 6235395
0.00851731 0.047721177 -1.5364066 8537925
0.0085312128 0.050044008 -1.5376571 8930614
0.0085589886 0.054689728 -1.5401583 9127717
0.0058849156 0.047651269 -1.5365657 8667207
-0.054715678 0.036752075 -1.5352225 6829079
-0.054667041 0.044882081 -1.5395995 7157518
-0.053316116 0.050724171 -1.5426463 7224342
-0.053302243 0.053047054 -1.5438968 7420196
-0.058664262 0.036647245 -1.5354612 6827279
-0.058636487 0.041292973 -1.5379623 6958355
-0.058615625 0.044777252 -1.5398382 7287571
-0.058587834 0.049422979 -1.5423392 7222054
-0.058567002 0.052907251 -1.544215 7221057
-0.06437242 0.035721503 -1.5353891 6629390
-0.063908234 0.039991707 -1.5376552 6695701
-0.063873485 0.045798875 -1.5407816 6893590
-0.063831806 0.052767433 -1.5445333 7154993
0.2786271 0.036639199 -1.5045546 3737857
0.27467126 0.037699617 -1.5054218 3803137
0.27470613 0.04352773 -1.5085593 3867905
0.27073634 0.042256832 -1.5081714 3736834
0.2707572 0.045753732 -1.5100539 3736839
0.26589513 0.042516798 -1.5086732 3474689
0.26548037 0.046779022 -1.5110009 3409666
0.26418036 0.050240792 -1.5129633 3475713
0.26152456 0.047839448 -1.5118678 3343881
0.26154542 0.051336281 -1.5137504 3344397
0.2192263 0.042054459 -1.5119123 3015170
0.21390763 0.036086068 -1.509094 5049354
0.21526343 0.04194925 -1.512152 4459266
0.20994478 0.035980858 -1.5093336 5707277
0.21128666 0.039512768 -1.5111363 5446147
0.21132153 0.045340881 -1.5142739 5447681
0.21002847 0.049968287 -1.5168639 5775617
0.20961374 0.054230571 -1.5191915 5972740
0.20598197 0.035875581 -1.5095731 6235408
-0.064707816 0.046169162 -1.5353515 6827541
-0.064679906 0.050831579 -1.5378617 7025176
-0.064665973 0.05316285 -1.5391167 7155492
-0.07135433 0.039000005 -1.5319855 6431761
-0.07001248 0.042531975 -1.5337882 6366486
-0.0699846 0.047194459 -1.5362984 6631449
-0.069963664 0.050691299 -1.5381809 6827024
-0.069942772 0.054188207 -1.5400635 6958370
-0.075317204 0.038894795 -1.5322249 6302740
-0.075296283 0.042391643 -1.5341077 6303246
-0.075268403 0.047054172 -1.5366178 6434569
-0.073926538 0.050586089 -1.5384204 6695687
-0.074783921 0.054448113 -1.5405655 6892050
-0.080169976 0.037212022 -1.5316809 6234393
-0.084577799 0.036318034 -1.5315287 6299951
0.27335244 0.035775006 -1.4976529 3475201
0.27249837 0.040824257 -1.5004376 3802881
0.26982403 0.037241869 -1.4987072 3344641
0.26851845 0.040718555 -1.5006781 3409665
0.26279527 0.044858351 -1.5033362 3082497
0.26193422 0.048736997 -1.5054907 3212545
0.25926691 0.046325274 -1.5043906 2755585
0.25928792 0.049837194 -1.5062813 2950409
0.25930887 0.053349175 -1.508172 3016226
0.21506393 0.048272766 -1.5087436 4656897
0.21420282 0.052151352 -1.510898 5116929
0.21510592 0.055296667 -1.5125251 5182977
-0.080313444 0.044330701 -1.5286971 6302723
-0.080292434 0.047842681 -1.5305878 6303235
-0.079377681 0.052938998 -1.5332654 6498829
-0.084307373 0.041883677 -1.5276772 6300949
-0.08429338 0.044225 -1.5289377 6301698
-0.08427237 0.04773698 -1.5308284 6302211
-0.083799839 0.052821584 -1.5335326 6498311
-0.089648992 0.035889551 -1.5248467 6168070
-0.089621007 0.040572129 -1.5273676 6235145
0.26849574 0.038806714 -1.492819 3147777
0.26408741 0.044175275 -1.4960413 3015937
0.25966498 0.047192462 -1.4979976 2689025
0.25702846 0.051824413 -1.5006905 2492161
0.2570495 0.055351473 -1.5025893 2688013
0.25437778 0.054105043 -1.5021173 2229250
0.21972257 0.050833821 -1.5029451 3015169
0.2184113 0.054325484 -1.5049244 3803649
-0.086648017 0.054453313 -1.5277945 6432260
-0.09068726 0.047293052 -1.5242383 6234625
-0.09066616 0.050820112 -1.526137 6235656
-0.090638041 0.055522852 -1.5286689 6433043
-0.095624149 0.038541682 -1.5198916 5904917
-0.096044809 0.042448767 -1.5220286 5972493
-0.09469837 0.044835538 -1.523214 6104327
-0.094663218 0.050713979 -1.5263788 6235157
-0.10004185 0.042342626 -1.52227 5839625
0.2679463 0.035920724 -1.4856132 2491649
0.26394916 0.038173959 -1.487126 1704449
0.26441836 0.042118661 -1.4892166 2754305
0.26265436 0.045217663 -1.4910181 2884609
0.25998724 0.046326563 -1.491815 2425601
0.2573342 0.049795158 -1.4938822 2425090
0.2573483 0.052154914 -1.4951526 2360321
0.25335109 0.054408133 -1.4966654 1507841
-0.095604643 0.049860597 -1.5202973 6169349
-0.10100952 0.04027959 -1.5155388 5773593
-0.099658281 0.042674832 -1.5167284 5839125
-0.099623024 0.048574209 -1.5199044 5972234
-0.099594802 0.053293712 -1.5224452 6102046
-0.10637908 0.0365979 -1.5139564 5445380
-0.10502083 0.040173076 -1.515781 5576205
-0.10499963 0.043712698 -1.5176868 5577221
-0.10497142 0.048432201 -1.5202277 5773831
-0.10449514 0.053556852 -1.5229533 5971226
-0.10905331 0.036526926 -1.514118 5182724
-0.10903212 0.040066555 -1.5160236 5248263
-0.10901096 0.043606177 -1.5179292 5379592
-0.1089898 0.047145799 -1.5198349 5511430
-0.10894745 0.054225065 -1.5236461 5840154
0.26570666 0.038998365 -1.4806085 3080961
0.26302105 0.038927063 -1.4807708 3735809
0.26304939 0.043666668 -1.4833224 2032898
0.25899974 0.040005013 -1.4816523 7220752
0.25902808 0.044744618 -1.4842039 2294530
0.25770652 0.048263669 -1.4861988 1442049
0.25772071 0.050633483 -1.4874747 2490625
0.25228569 0.039826691 -1.4820579 11102298
0.2550422 0.051747084 -1.4882748 1900802
0.25506347 0.055301845 -1.4901885 1508098
-0.10743728 0.055153586 -1.5172032 5906193
-0.11290772 0.038422294 -1.5085969 4788229
-0.11288647 0.041976996 -1.5105107 4985864
-0.11285811 0.046716601 -1.5130624 5181961
-0.1119322 0.051874988 -1.5157725 5511172
-0.11559334 0.038350925 -1.5087591 4460296
-0.11556498 0.043090597 -1.5113109 4721676
-0.11555082 0.045460403 -1.5125868 4853258
-0.11551537 0.051384911 -1.5157763 5117189
0.26072586 0.038433999 -1.4738464 9525804
0.25802881 0.038362361 -1.4740094 11563327
0.2553674 0.04424049 -1.4773755 9590312
0.25538158 0.046620347 -1.4786568 7022593
0.25540295 0.050190188 -1.4805787 3866881
0.25268462 0.046548717 -1.4788198 9982003
0.25270596 0.050118566 -1.4807417 6951949
0.25273445 0.05487828 -1.4833043 1376513
0.24866045 0.050011113 -1.4809862 10117930
0.24868891 0.054770879 -1.4835488 7086088
0.24462205 0.051093601 -1.4818714 11041888
0.24374199 0.054242916 -1.4836339 10384170
-0.11676364 0.04387679 -1.5049938 4590090
-0.11672095 0.05101642 -1.5088376 4919049
-0.11950336 0.036665529 -1.5013131 3607553
-0.12038339 0.039814793 -1.5030758 3803650
-0.11945356 0.044995092 -1.5057975 4263430
-0.1194251 0.049754851 -1.5083599 4524550
-0.12074511 0.054478824 -1.511004 4591874
0.25840765 0.037910163 -1.4669071 11433045
0.25574207 0.045008056 -1.4709308 10381903
0.24495131 0.05189018 -1.4754455 11105881
-0.12341504 0.038524128 -1.4957765 2426113
-0.12337929 0.044498958 -1.4989932 3474433
-0.12335785 0.048083887 -1.5009232 3671298
-0.12332927 0.052863754 -1.5034965 4065027
-0.12612346 0.038452223 -1.4959402 1442307
-0.12609485 0.043232106 -1.4985136 2753027
-0.12606628 0.048011981 -1.5010868 3146755
-0.1269381 0.053166211 -1.5039293 3474946
0.25611669 0.045755565 -1.4644752 11237713
-0.13008371 0.037899934 -1.4891082 3280385
-0.13006219 0.041499943 -1.4910463 852229
-0.13003346 0.046299919 -1.4936305 1966341
-0.13000479 0.051099911 -1.4962146 2556165
-0.13407418 0.036111712 -1.4816128 7157812
-0.13405254 0.039726853 -1.4835589 2887181
-0.13402373 0.044547006 -1.486154 327939
-0.13399489 0.049367093 -1.4887489 1245443
-0.13396607 0.054187238 -1.491344 1966343
-0.18861222 0.049121581 -1.4926989 7354935
-0.19271624 0.047807775 -1.4922978 7418680
-0.19406025 0.051386595 -1.4943266 7878466
-0.19681309 0.047699019 -1.4925455 7616825
-0.19677705 0.053724177 -1.4957892 8076371
-0.20228276 0.0463489 -1.4922268 7813169
-0.20499957 0.048686475 -1.4936893 8010065
-0.21735498 0.037514798 -1.4885933 7549489
-0.22145899 0.036200926 -1.4881922 7812916
-0.22692147 0.03605593 -1.4885223 8075558
0.25415179 0.0519576 -1.4543031 10908255
-0.1380081 0.0475934 -1.4812628 393473
-0.13797913 0.052433662 -1.4838687 1114369
-0.18323253 0.051231995 -1.4866036 6959158
-0.19016874 0.037739195 -1.4798518 5577751
-0.19011809 0.046209671 -1.4844121 6630445
-0.18826313 0.050695144 -1.4866902 7090999
-0.19291133 0.037666373 -1.4800177 5773598
-0.19288965 0.041296594 -1.481972 6169620
-0.19286068 0.046136841 -1.4845779 6826286
-0.19702533 0.037557133 -1.4802662 6102555
-0.19700359 0.041187353 -1.4822206 6431779
-0.19697465 0.046027601 -1.4848266 7023409
-0.20251781 0.03620138 -1.4799464 6367762
-0.20248887 0.041041695 -1.4825522 6828315
-0.20245989 0.045881957 -1.4851581 7289891
-0.20197144 0.051137723 -1.4879532 7747644
-0.202402 0.055562459 -1.4903697 8075845
-0.20800309 0.036055729 -1.4802779 6628895
-0.20797414 0.040896043 -1.4828837 7091772
-0.2079452 0.045736298 -1.4854895 7485752
-0.20837577 0.050161086 -1.4879057 7944014
-0.20788731 0.0554168 -1.4907012 8141641
-0.21348833 0.03591007 -1.4806093 6893850
-0.21345934 0.040750325 -1.4832152 7288117
-0.21343042 0.045590587 -1.485821 7617580
-0.21340145 0.050430901 -1.4884269 7945011
-0.21337251 0.055271149 -1.4910328 8206651
-0.21891569 0.045444921 -1.4861525 7681834
-0.21888675 0.050285235 -1.4887583 8011282
-0.21748649 0.055161901 -1.4912813 8206635
-0.22305131 0.041705526 -1.4844468 7878196
-0.2230296 0.04533568 -1.4864012 7943982
-0.22300063 0.050175995 -1.489007 8141849
-0.22671302 0.040801771 -1.4842334 7943726
-0.22714359 0.04522644 -1.4866499 7877671
-0.22712189 0.048856661 -1.4886042 7944228
-0.23265779 0.040240534 -1.4843754 8142100
-0.23217414 0.04468964 -1.4867365 8076558
-0.23123582 0.04874742 -1.4888527 7683601
-0.23816477 0.036464714 -1.4827526 8011302
-0.23814307 0.040094875 -1.4847069 8206106
-0.23812133 0.043725096 -1.4866614 8598051
-0.24364999 0.036319062 -1.483084 8010034
-0.24362829 0.039949216 -1.4850385 8074267
-0.24360657 0.043579444 -1.4869928 8204329
-0.24776395 0.036209814 -1.4833328 8206148
-0.24774225 0.039839976 -1.4852871 8336145
-0.24772051 0.043470196 -1.4872415 7943979
-0.25185618 0.039730735 -1.4855357 8335885
-0.25182724 0.04457099 -1.4881414 7616802
-0.25043422 0.048237629 -1.4900131 7420707
-0.25734144 0.039585076 -1.4858673 7680523
-0.25594842 0.043251716 -1.4877387 7483929
-0.26283395 0.038229331 -1.4855472 6956548
-0.2779184 0.037828781 -1.4864589 9723722
-0.13929029 0.045852058 -1.47359 1573121
-0.1750346 0.054622099 -1.4809871 6040086
-0.17916569 0.054512426 -1.4812368 6564391
-0.18331851 0.050757393 -1.4795239 6366774
-0.18888472 0.040890358 -1.4746234 5446929
-0.18886289 0.044535667 -1.476586 5841934
-0.1874568 0.049432598 -1.4791194 6367278
-0.19442184 0.035883747 -1.4723396 5379092
-0.19303031 0.038350508 -1.4735647 5445141
-0.19161695 0.044462569 -1.4767525 5973521
-0.19855288 0.035774015 -1.4725894 5642513
-0.19853836 0.038204253 -1.4738977 5840406
-0.22873101 0.054411143 -1.4848869 8206883
-0.23564517 0.04936789 -1.4826862 7880987
-0.23470293 0.05344262 -1.4848114 7749409
-0.23839918 0.0492948 -1.4828527 8075823
-0.23837741 0.0529401 -1.4848151 7748403
-0.24253023 0.04918506 -1.4831023 8203829
-0.24250844 0.052830368 -1.4850649 7811632
-0.24803835 0.049038805 -1.4834353 7878734
-0.24801654 0.052684106 -1.4853978 7550250
-0.25398117 0.052930705 -1.4859765 7222281
-0.25951833 0.047924027 -1.4836926 7482924
-0.26321459 0.043776214 -1.4817339 7416068
-0.26320004 0.046206385 -1.4830424 7678249
-0.26780948 0.042844258 -1.4815753 6958876
-0.26732379 0.047311775 -1.4839461 8407630
-0.27334666 0.037837587 -1.4792917 6826529
-0.2714839 0.042341739 -1.4815792 7946578
-0.27146211 0.04598704 -1.4835416 9005152
-0.27701384 0.038550191 -1.4799495 8603500
-0.27699924 0.040980369 -1.4812578 9266773
-0.14327249 0.054978043 -1.4719746 590088
-0.1736923 0.054170236 -1.4738131 5447182
-0.17784776 0.052839987 -1.4734069 5644811
-0.18481244 0.044115484 -1.4692266 5183506
-0.18479055 0.047775865 -1.4711972 5579293
-0.18292019 0.052298695 -1.4734943 5906466
-0.19037254 0.039088108 -1.4669333 4984580
-0.18850948 0.042390801 -1.4685733 5249039
-0.18755597 0.047702439 -1.4713643 5710613
-0.19314522 0.037794538 -1.4664437 5050378
-0.2594063 0.05433403 -1.4803079 7222314
-0.26495174 0.05174689 -1.4793284 7743822
-0.26355439 0.054223858 -1.4805585 7617359
-0.26770258 0.054113753 -1.4808093 8872812
-0.27696937 0.045734838 -1.476987 9198920
-0.14455169 0.055651471 -1.4656028 262404
-0.16863717 0.051745377 -1.4652981 4000513
-0.17375247 0.047526278 -1.4634072 3803905
-0.17373048 0.051201738 -1.465386 4330241
-0.17980318 0.041649155 -1.4606926 3671812
-0.17931348 0.046153598 -1.4630833 4263430
-0.17928419 0.051054291 -1.4657217 5052419
-0.18491842 0.037430063 -1.458802 3671307
-0.18489644 0.041105524 -1.4607806 4196633
-0.18440679 0.045610145 -1.4631711 4854292
-0.18344945 0.050943628 -1.4659734 5511185
-0.1890837 0.037319399 -1.4590535 4131335
-0.1890617 0.04099492 -1.4610323 4590865
-0.19186054 0.037245706 -1.4592214 4395009
-0.19184589 0.039695993 -1.4605405 4722434
-0.15980163 0.05101376 -1.4574131 1900801
-0.15977956 0.054704301 -1.4593999 2162945
-0.16398396 0.050902665 -1.4576659 2491137
-0.16396193 0.054593265 -1.4596528 3015425
-0.16956784 0.049524426 -1.4573407 3015682
-0.16815165 0.053251967 -1.4592433 3474689
-0.17517379 0.04445558 -1.4550284 3081218
-0.17515171 0.048146173 -1.4570153 3474434
-0.17937823 0.040653944 -1.4532944 3015938
-0.1793635 0.043114342 -1.4546189 3343619
-0.18310565 0.038915001 -1.452636 3146758
-0.16115297 0.049154788 -1.4496822 1835267
-0.15926683 0.052498288 -1.4513428 1638657
-0.16675226 0.049006082 -1.4500207 2425089
-0.16533764 0.051513709 -1.4512662 2162945
-0.17095907 0.04765933 -1.4496095 2883845
-0.17518072 0.043842174 -1.4478682 2819073
-0.1793876 0.042495422 -1.447457 2819073
-0.18642366 0.036133476 -1.4445549 3015434
-0.18360925 0.038678281 -1.4457159 2818817
-0.15707663 0.051635161 -1.4427453 1245441
-0.16082974 0.051121913 -1.4427493 1638658
-0.1655155 0.05141107 -1.4432554 2031874
-0.16833587 0.05009532 -1.4427572 2490625
-0.17397662 0.047463715 -1.4417609 2753025
-0.18244517 0.042275265 -1.4395982 2622209
-0.17961738 0.044832163 -1.4407645 2753793
-0.18528037 0.038477279 -1.4377637 2621953
-0.18950725 0.037124172 -1.4373505 2621703
-0.15555137 0.054767527 -1.4374887 917768
-0.16122246 0.05087921 -1.4358175 983298
-0.16499327 0.049948446 -1.4355979 1638658
-0.17158341 0.049773417 -1.4359962 2556161
-0.17678626 0.045482181 -1.4340729 2359809
-0.17677134 0.047974467 -1.4354146 2687745
-0.18103024 0.044123553 -1.4336579 2359553
-0.18577978 0.036937214 -1.4301407 2359553
-0.18387695 0.040310219 -1.4318161 2490625
-0.18386206 0.04280246 -1.4331578 2490881
-0.16824204 0.047514848 -1.427699 1442049
-0.16821957 0.051268332 -1.4297198 2228481
-0.17107779 0.047439538 -1.4278703 1638657
-0.17105535 0.051193014 -1.4298911 2359809
-0.17486131 0.046922088 -1.4278743 1900801
-0.18245827 0.040882573 -1.4251879 2556161
-0.1810254 0.043422543 -1.4264495 2425089
-0.17959256 0.045962512 -1.4277109 2162945
-0.18530899 0.03830497 -1.4240122 2556161
-0.17694308 0.047073551 -1.4201428 1966337
-0.18123172 0.044445992 -1.4190476 2687233
-0.18697493 0.036752544 -1.4153315 1769729
-0.17997853 0.048010148 -1.4129057 2294017
-0.18571843 0.04533238 -1.4118918 2425090
-0.17847271 0.051076658 -1.4076151 1966364
-0.18279855 0.04842633 -1.4065102 3080449
-0.18712437 0.04577601 -1.4054055 2294017
-0.18585995 0.04931698 -1.3992503 1967380
-0.20035627 0.038743287 -1.3946365 2359553
-0.013120666 0.039675444 -1.3102367 8471348
-0.013065428 0.043534596 -1.3103979 8404538
-0.009270221 0.039607707 -1.3105389 8470332
-0.0079314858 0.04344428 -1.3108008 8404032
-0.0091597289 0.047326002 -1.3108611 8207415
-0.0078025758 0.052448951 -1.3111767 7880001
-0.0041546971 0.038231011 -1.3108881 8536351
-0.0040257871 0.04723569 -1.311264 8339772
-0.0039521232 0.052381214 -1.3114789 8142655
0.00097924471 0.038140696 -1.311291 8603448
0.0010529086 0.043286227 -1.3115058 8668483
0.0011081547 0.04714537 -1.311667 8603192
0.0011818111 0.052290898 -1.3118818 8143683
0.0061315969 0.03933676 -1.3117476 8537655
0.0061868429 0.043195911 -1.3119087 8799801
0.006242089 0.047055058 -1.3120699 8863794
0.0063157529 0.052200582 -1.3122847 8142650
0.011265539 0.039246444 -1.3121505 8800022
0.011320785 0.043105595 -1.3123116 8668204
0.011376031 0.046964739 -1.3124727 8667168
0.011449695 0.052110266 -1.3126875 8601895
0.016399473 0.039156128 -1.3125534 8734257
0.016454726 0.043015275 -1.3127146 8537913
0.016491555 0.045588043 -1.312822 8340030
0.021533415 0.039065808 -1.3129563 8866869
0.021588661 0.042924959 -1.3131174 8735027
0.020342007 0.045520302 -1.3131241 8668721
0.026667356 0.038975492 -1.3133593 8932402
0.026722603 0.042834643 -1.3135203 8735286
0.031801291 0.038885176 -1.3137621 8932419
0.030573055 0.042766906 -1.3138225 8801352
0.036935233 0.03879486 -1.314165 8866112
0.035706997 0.04267659 -1.3142254 8997192
0.037027314 0.045226775 -1.3144336 8995902
0.042069167 0.038704544 -1.3145679 8930351
0.042161241 0.045136459 -1.3148364 8603440
0.047184691 0.037327848 -1.3149171 9195827
0.051035151 0.037260111 -1.3152193 9000497
-0.047151551 0.044071611 -1.3137439 6763025
-0.047949359 0.048393693 -1.3138565 6301965
-0.048311248 0.053138927 -1.3140204 6302516
-0.043302506 0.042711481 -1.3139936 7090210
-0.043228522 0.047879845 -1.3142093 6694688
-0.043154523 0.053048208 -1.3144251 6564641
-0.038201272 0.038744487 -1.3142364 7749921
-0.038145781 0.042620763 -1.3143982 7351852
-0.038071796 0.047789127 -1.3146141 6957079
-0.037997812 0.05295749 -1.3148298 6958097
-0.033044547 0.038653776 -1.3146411 8012073
-0.032989055 0.042530052 -1.3148029 7681590
-0.032915071 0.047698416 -1.3150187 7221029
-0.032841086 0.052866776 -1.3152344 6893857
-0.02917701 0.038585737 -1.3149446 8076594
-0.029121518 0.042462014 -1.3151064 7748149
-0.029047534 0.047630377 -1.3153222 7354922
-0.028973535 0.052798741 -1.3155379 7092526
-0.025309473 0.038517699 -1.3152481 8206906
-0.025253981 0.042393975 -1.3154099 7878960
-0.025179982 0.047562338 -1.3156257 7551531
-0.025105998 0.052730698 -1.3158414 7485482
-0.021478921 0.035865478 -1.3154438 8862258
-0.020152748 0.038426984 -1.3156528 8469802
-0.020097256 0.04230326 -1.3158146 8207661
-0.020023257 0.047471624 -1.3160304 7943455
-0.019949272 0.052639984 -1.3162462 7877667
-0.016285196 0.038358945 -1.3159564 8471851
-0.016229704 0.042235222 -1.3161181 8403762
-0.014866546 0.047380906 -1.3164351 8141103
-0.014792547 0.052549265 -1.3166509 7813425
-0.011054486 0.043436594 -1.3165767 8404029
-0.01092501 0.05248123 -1.3169544 7683643
-0.0046270862 0.042031109 -1.3170286 8470834
0.00051113963 0.040648296 -1.3173795 8537918
0.016092293 0.048128694 -1.3189172 8601924
0.016147785 0.052004963 -1.319079 8798522
0.021666408 0.047169019 -1.3193197 8603158
0.020015329 0.051936928 -1.3193825 8536884
0.026810795 0.046216913 -1.3196884 8603689
0.032777652 0.0426655 -1.3200166 8866391
0.031543963 0.046564452 -1.3200773 8668220
0.037934378 0.042574786 -1.3204213 8865338
0.036719188 0.047765829 -1.3205359 8668475
0.041801915 0.042506747 -1.3207248 8733723
0.041875906 0.04767511 -1.3209406 8472390
0.045650959 0.041146617 -1.3209743 8998187
0.045724943 0.046314981 -1.3211901 8669247
0.049082607 0.040655438 -1.3212264 8933690
0.049573995 0.044954855 -1.3214397 8733249
0.054619741 0.037111592 -1.3215208 8999218
0.053386051 0.041010547 -1.3215815 8867641
0.053441539 0.04488682 -1.3217432 8799806
0.059776463 0.037020873 -1.3219254 9195582
0.059813458 0.039605055 -1.3220334 9129527
0.064933181 0.036930159 -1.3223301 9196100
0.063680999 0.039537016 -1.3223369 9195585
0.068800718 0.03686212 -1.3226336 9259341
-0.058825701 0.053737406 -1.3182321 6366756
-0.052942097 0.042824112 -1.3182546 6564636
-0.05414319 0.049331114 -1.3184237 6432529
-0.054087505 0.053221658 -1.3185862 6564908
-0.04784064 0.037545662 -1.3184443 7484186
-0.049497813 0.042331129 -1.3185074 6828043
-0.050298542 0.046669129 -1.3186201 6434561
-0.043958858 0.037477378 -1.3187488 7681058
0.022254214 0.051878661 -1.3245773 8340518
0.024786368 0.04794259 -1.324618 8472852
0.02569849 0.051385675 -1.3248302 8274477
0.0308742 0.051294625 -1.3252363 8406067
0.03604991 0.051203571 -1.3256426 8406840
0.040350631 0.050263133 -1.3259448 8210754
0.044232413 0.050194848 -1.3262495 8472647
0.050590657 0.042299945 -1.3264323 8865854
0.049370989 0.047510099 -1.3265474 8863555
0.048114195 0.05012656 -1.3265541 8863811
0.0557478 0.040912051 -1.3267844 8866868
0.054965623 0.046546895 -1.3269514 8800585
0.053289901 0.05003551 -1.3269603 8996395
0.059648149 0.042140607 -1.3271432 8931888
0.059703846 0.046031151 -1.3273056 8734549
0.065242782 0.041177407 -1.3275472 9063490
0.064879552 0.045940101 -1.3277117 8800064
0.069543503 0.040236965 -1.3278496 9258310
0.068761334 0.045871809 -1.3280164 8931639
0.075519934 0.035807908 -1.328143 9194324
0.073844217 0.039296523 -1.3281518 9126731
0.08550813 0.040388506 -1.3291199 8996928
0.084269889 0.044301812 -1.3291807 9126986
0.09068384 0.040297456 -1.3295261 8735028
0.089445606 0.044210762 -1.329587 8669208
0.09585955 0.040206406 -1.3299322 8210229
0.099722758 0.03884127 -1.3301827 8210741
0.10489848 0.038750216 -1.3305889 8405295
-0.064002708 0.039055943 -1.3222455 6692387
-0.065245479 0.042983606 -1.3223065 6298666
-0.065170944 0.048190027 -1.322524 6038810
-0.065096408 0.053396448 -1.3227413 6170147
-0.060125321 0.0376858 -1.3224969 6956316
-0.060050786 0.042892221 -1.3227142 6497069
-0.05997625 0.048098642 -1.3229315 6301201
-0.061219007 0.052026305 -1.3229927 6301204
-0.054930627 0.037594415 -1.3229045 7024667
-0.056154758 0.042823683 -1.32302 6564402
-0.054800183 0.046705652 -1.3232849 6366494
-0.0510346 0.037525877 -1.3232102 7288594
0.027128071 0.053075973 -1.3300318 8274998
0.032322764 0.052984592 -1.3304393 8406065
0.037517458 0.052893206 -1.330847 8407610
0.040114805 0.052847512 -1.3310509 8408641
0.040152073 0.055450723 -1.3311596 8605257
0.044010833 0.052778974 -1.3313566 8473159
0.049625993 0.051812239 -1.3317621 8667958
0.05482069 0.051720858 -1.3321698 8669741
0.05957628 0.051203217 -1.3325253 8537927
0.064770974 0.051111832 -1.3329329 8668978
0.071133904 0.041886363 -1.3330622 9258049
0.071189806 0.045791179 -1.3332251 9061671
0.069965675 0.051020447 -1.3333406 8800566
0.075450405 0.040942475 -1.3333657 8996931
0.075085834 0.045722641 -1.3335309 9127714
0.075160369 0.050929062 -1.3337483 8930861
0.080206007 0.040424835 -1.3337213 9062724
0.080280535 0.045631256 -1.3339386 9257283
0.080355071 0.050837677 -1.3341559 8995647
0.085914336 0.045966126 -1.3343984 8865592
0.085549764 0.050746292 -1.3345636 8667716
0.09110903 0.045874741 -1.3348061 8472605
