# .PCD v0.7 - Point Cloud Data file format
VERSION 0.7
FIELDS x y z rgba
SIZE 4 4 4 4
TYPE F F F U
COUNT 1 1 1 1
WIDTH 1120
HEIGHT 1
VIEWPOINT 0 0 0 1 0 0 0
POINTS 1120
DATA ascii
0.38937002 -0.11325736 -1.499752 5907211
0.38939637 -0.10884308 -1.5021285 6235914
0.38984191 -0.10404982 -1.5046777 6302501
0.38944918 -0.10001455 -1.5068814 6498609
0.38436753 -0.1133902 -1.5000544 6301717
0.38439387 -0.10897593 -1.5024307 6630929
0.38442028 -0.10456166 -1.5048072 7089436
0.38444668 -0.10014738 -1.5071839 7089184
0.37936491 -0.11352299 -1.5003566 6499867
0.37939137 -0.10910872 -1.5027331 6894102
0.37941778 -0.10469451 -1.5051097 7615261
0.38069475 -0.10024699 -1.5074105 7548701
0.37478155 -0.11327689 -1.5008317 6828584
0.3748036 -0.10959832 -1.5028121 7090980
0.37565929 -0.10589769 -1.5047421 7353636
0.41664457 -0.1014564 -1.4983801 3936513
0.41160315 -0.10491303 -1.4968944 4263938
0.41287839 -0.10155638 -1.4986076 4263169
0.40777737 -0.11498284 -1.4917545 4657413
0.40780389 -0.11055181 -1.49414 4853514
0.40783042 -0.10612079 -1.4965256 4787971
0.40827763 -0.10130935 -1.4990846 4919555
0.40913218 -0.098333113 -1.5006244 5050113
0.40275592 -0.11511621 -1.4920579 5116678
0.40319872 -0.11104329 -1.4942194 5182212
0.40405768 -0.10732854 -1.4961568 5116419
0.40409738 -0.10068198 -1.499735 5315599
0.37647915 -0.10141539 -1.5014043 7548971
0.37775445 -0.098058738 -1.5031174 7351589
0.37263352 -0.11480851 -1.4944751 6697519
0.37223274 -0.1118656 -1.4960909 6893355
0.37226361 -0.10669601 -1.4988739 7223347
0.37270641 -0.10262315 -1.5010355 7222574
0.37273294 -0.098192118 -1.5034209 7157298
0.36760539 -0.1160496 -1.4941823 6893361
0.36763191 -0.11161857 -1.4965678 7482403
0.36765844 -0.10718749 -1.4989535 7354936
0.3676849 -0.10275646 -1.5013388 7026983
0.36896676 -0.098292105 -1.5036485 6893863
0.36258394 -0.11618292 -1.4944859 6891298
0.3626104 -0.11175188 -1.4968714 6958111
0.35881114 -0.11739067 -1.4941171 6958363
0.42852652 -0.098520659 -1.4933816 3998211
0.42388386 -0.10234983 -1.4916654 4326913
0.42390382 -0.099014021 -1.4934614 3999746
0.41884333 -0.10248368 -1.4919699 4722433
0.42012346 -0.099114388 -1.4936899 4001537
0.41371638 -0.11707294 -1.4844923 3936002
0.41332519 -0.11226559 -1.4871118 4197891
0.41335177 -0.10781781 -1.4895064 4262918
0.41421396 -0.104089 -1.491451 4329474
0.3633911 -0.10506798 -1.4947224 6696989
0.36341769 -0.10062014 -1.4971169 6565919
0.35787958 -0.11373793 -1.4904625 7285788
0.35832399 -0.10964961 -1.4926324 6826527
0.35835057 -0.10520183 -1.4950269 6499109
0.35963732 -0.10072058 -1.4973453 6564120
0.35451698 -0.11419782 -1.4904664 6892065
0.35454357 -0.10975004 -1.4928608 6563622
0.1037716 -0.11752089 -1.5074172 7354147
0.098737746 -0.11654278 -1.5083205 7746605
0.098346561 -0.11173548 -1.51094 7486502
0.097530842 -0.10768063 -1.5131859 7681309
0.097557425 -0.10323279 -1.5155803 7943702
0.097577393 -0.099896975 -1.5173762 7944199
0.09369725 -0.11667663 -1.508625 7681056
0.093723834 -0.11222884 -1.5110197 7682075
0.093750477 -0.107781 -1.5134143 7616043
0.093777061 -0.10333323 -1.5158088 7943218
0.093803674 -0.09888538 -1.5182033 7943721
0.088656753 -0.11681046 -1.5089297 7222812
0.088676691 -0.11347459 -1.5107256 7223586
0.089970082 -0.10788137 -1.5136427 7092772
0.08999002 -0.10454555 -1.5154386 7289652
0.089185417 -0.09863741 -1.5186821 7681321
0.083616257 -0.1169443 -1.5092343 7417905
0.083729267 -0.09804111 -1.5194112 7418148
0.077322245 -0.11599967 -1.5102137 7155216
0.079948902 -0.098141536 -1.5196397 7155735
0.067334324 -0.10070003 -1.519204 7154455
0.42866081 -0.099985972 -1.4868902 4325653
0.42097813 -0.11581355 -1.4789362 4787465
0.42105824 -0.10241983 -1.486147 4131585
0.418455 -0.11476459 -1.47969 3801348
0.41763622 -0.11069448 -1.4819443 3999745
0.41766298 -0.10622989 -1.4843478 3869699
0.41852844 -0.10248702 -1.4862999 4264193
0.35529119 -0.10305028 -1.4907229 6301486
0.35700214 -0.098912932 -1.4928243 6563082
0.35014492 -0.11769447 -1.483217 6564670
0.35270798 -0.1120466 -1.4860687 6498330
0.35146981 -0.10761563 -1.4885488 6168844
0.35276145 -0.10311741 -1.4908758 6104348
0.12850744 -0.1005166 -1.5090387 7614516
0.12382501 -0.10808074 -1.5053129 7550243
0.12384504 -0.10473228 -1.5071157 7550255
0.12387174 -0.1002677 -1.5095192 7680836
0.11873209 -0.11379579 -1.5026141 7613971
0.1187655 -0.10821511 -1.5056187 7747353
0.11878553 -0.10486666 -1.5074214 7747100
0.11881223 -0.10040207 -1.5098251 7877155
0.11409202 -0.11429103 -1.5026942 7680792
0.11370596 -0.10834941 -1.5059246 7878958
0.11372599 -0.10500098 -1.5077271 7813160
0.11375272 -0.10053644 -1.5101308 8074542
0.10859305 -0.11741292 -1.5014231 7418645
0.1086131 -0.11406454 -1.5032258 7549714
0.1082204 -0.10923908 -1.5058552 7746858
0.10866648 -0.10513534 -1.5080329 7615791
0.10869318 -0.10067075 -1.5104364 7746367
0.10356024 -0.1130827 -1.5041325 7616045
0.1035803 -0.1097343 -1.5059352 7616819
0.10360697 -0.10526972 -1.5083387 7748135
0.1036337 -0.10080512 -1.5107424 7878443
0.09977898 -0.11095122 -1.5055636 7550770
0.099812359 -0.10537047 -1.508568 7617312
0.099839032 -0.10090587 -1.5109717 7812636
0.088408411 -0.10902122 -1.5074533 7354910
0.087163568 -0.10570633 -1.5093325 7223576
0.088035703 -0.10084732 -1.5118854 7419944
0.087210298 -0.097893357 -1.5135387 7549474
0.083342195 -0.11027168 -1.5071583 7419711
0.083368897 -0.10580709 -1.5095618 7353376
0.0833956 -0.10134255 -1.5119654 7353121
0.083415657 -0.097994111 -1.5137682 7418148
0.078675389 -0.11523145 -1.5048347 7220257
0.078282684 -0.11040605 -1.5074639 7352857
0.078309417 -0.10594147 -1.5098675 7221774
0.07833609 -0.10147686 -1.5122712 7287053
0.073196471 -0.11500496 -1.5053661 7090207
0.073223174 -0.11054043 -1.5077699 6893574
0.073249876 -0.10607582 -1.5101734 6893837
0.073276579 -0.10161123 -1.5125771 7286275
0.06813693 -0.11513933 -1.505672 6959126
0.068163663 -0.11067474 -1.5080756 6762509
0.068190366 -0.10621014 -1.5104791 6762504
0.068217069 -0.10174561 -1.5128827 7023365
0.06307745 -0.1152737 -1.5059777 7023128
0.063104153 -0.11080911 -1.5083812 6827048
0.063554704 -0.1059613 -1.5109597 6630927
0.063157558 -0.10187992 -1.5131885 6760974
0.056746364 -0.11655778 -1.5057591 7021074
0.059369594 -0.10086458 -1.5140187 6760720
0.42710477 -0.10003065 -1.4812906 3801857
0.42195922 -0.11136886 -1.4755658 3735813
0.42197925 -0.10800785 -1.4773753 3670785
0.42327571 -0.10349278 -1.4797112 3671041
0.42456549 -0.10009806 -1.4814439 4064513
0.35085988 -0.11325686 -1.4798628 6367532
0.35087997 -0.10989585 -1.4816723 6235412
0.35092688 -0.10205349 -1.4858943 5971471
0.34831393 -0.11444462 -1.4794129 6236458
0.34834075 -0.10996327 -1.4818256 5973271
0.34751892 -0.10587778 -1.4840883 5905427
0.34838766 -0.10212091 -1.4860477 5839632
0.34328234 -0.10673716 -1.4839419 5510957
0.13757539 -0.11668021 -1.4939598 7287067
0.13376647 -0.11678135 -1.49419 7352871
0.13256386 -0.10561168 -1.5002983 7552300
0.1334326 -0.10185469 -1.5022575 7485202
0.13388041 -0.097735606 -1.5044436 7484976
0.12826923 -0.11618047 -1.4949244 7484703
0.12830049 -0.11095223 -1.4977392 7289110
0.12832728 -0.10647088 -1.5001516 7485983
0.12877506 -0.1023518 -1.5023378 7551002
0.12361613 -0.11593069 -1.4954069 7484201
0.12364295 -0.11144934 -1.4978195 7353628
0.12366307 -0.10808832 -1.499629 7419168
0.11811668 -0.11570331 -1.4959404 7680298
0.11856443 -0.11158424 -1.4981264 7615508
0.11858451 -0.10822323 -1.499936 7681813
0.112223 -0.11063246 -1.4991133 7680813
0.11350602 -0.10835807 -1.5002428 7747637
0.1096971 -0.1084592 -1.500473 7747123
0.061410964 -0.11646239 -1.49977 6892045
0.061477959 -0.10525902 -1.5058014 6630680
0.057595342 -0.11768386 -1.4993969 6760198
0.058047593 -0.11281776 -1.501985 7348502
0.057648957 -0.10872115 -1.5042222 6956826
0.057675749 -0.1042398 -1.5066347 6564359
0.057277113 -0.10014308 -1.5088718 6695435
0.052523524 -0.11669835 -1.5003068 6628374
0.05254364 -0.11333735 -1.5021164 6758426
0.052570432 -0.108856 -1.504529 6890777
0.053866863 -0.10434094 -1.506865 6760710
0.052624047 -0.099893302 -1.5093544 6629646
0.047465146 -0.11347225 -1.5024235 6497583
0.047498614 -0.10787056 -1.505439 6696223
0.43081963 -0.1006333 -1.4738578 3932971
0.42649901 -0.11237501 -1.4678541 7755823
0.42567116 -0.10864634 -1.4699252 3613467
0.42696673 -0.10523637 -1.4716656 4460061
0.42826897 -0.10070104 -1.474012 3801345
0.34658045 -0.11412212 -1.4728862 6169633
0.34660059 -0.11074603 -1.4747038 6170142
0.3466208 -0.10736994 -1.4765213 5580314
0.34665447 -0.10174306 -1.4795506 6036503
0.34794998 -0.098333098 -1.4812912 5970957
0.34275442 -0.11422375 -1.4731172 5974031
0.34277463 -0.11084759 -1.4749349 5972763
0.34279478 -0.1074715 -1.4767525 6035500
0.34239888 -0.1026062 -1.4794036 7089212
0.34327155 -0.098832384 -1.4813719 7553845
0.33765978 -0.11323382 -1.4740316 6495505
0.33767325 -0.1109831 -1.4752432 6763023
0.33811635 -0.10797079 -1.4768332 8408599
0.3389957 -0.10307161 -1.4794073 9722946
0.33297461 -0.11485847 -1.4735063 8673303
0.15530074 -0.11582584 -1.4862651 6627619
0.15147471 -0.11592747 -1.4864962 6630168
0.15149492 -0.11255138 -1.4883138 6499091
0.1502465 -0.10808374 -1.4908142 6827286
0.14637339 -0.11606292 -1.4868046 6893840
0.1463936 -0.11268682 -1.4886221 6761239
0.14642051 -0.10818537 -1.4910455 6957090
0.14517209 -0.10371772 -1.493546 7417112
0.14605153 -0.098818548 -1.4961201 7090723
0.1425474 -0.11616453 -1.4870359 7155214
0.14129224 -0.11282226 -1.4889305 7089426
0.14131922 -0.10832079 -1.4913539 7154224
0.14092326 -0.1034555 -1.494005 7220779
0.14137304 -0.099317834 -1.4962007 6828321
0.13619769 -0.11183239 -1.4898446 7221288
0.13621786 -0.10845624 -1.4916621 7220278
0.1362448 -0.10395479 -1.4940856 7351863
0.13669458 -0.09981712 -1.4962815 7222812
0.13237166 -0.11193395 -1.4900758 7352880
0.13239187 -0.10855787 -1.4918933 7281469
0.13241208 -0.10518178 -1.493711 7419223
0.129821 -0.1120017 -1.49023 7483682
0.12983447 -0.10975099 -1.4914417 7352605
0.12986141 -0.10524946 -1.4938653 7421499
0.050824434 -0.10172233 -1.5016731 6695689
0.046964794 -0.10745078 -1.498875 6629681
0.046998441 -0.1018239 -1.5019044 6630157
0.040541023 -0.11549769 -1.4950194 5973511
0.041843295 -0.1109623 -1.4973657 6236448
0.041870177 -0.10646085 -1.4997891 6433561
0.041897118 -0.1019594 -1.5022125 6760453
0.036715031 -0.11559926 -1.4952506 5775641
0.036741942 -0.11109781 -1.4976741 6104597
0.036768854 -0.10659628 -1.5000975 6365967
0.03678906 -0.1032202 -1.5019151 6562561
0.031613678 -0.11573476 -1.4955589 5907003
0.032063454 -0.11159709 -1.4977547 6104357
0.031674266 -0.10560643 -1.5010117 6431777
0.026084989 -0.11625659 -1.4956909 5906979
0.026532561 -0.1124941 -1.4976848 6036238
0.026572943 -0.10574186 -1.5013199 6564377
0.021411031 -0.11600564 -1.4961754 6366002
0.022706568 -0.11259566 -1.497916 6561289
0.02147159 -0.10587736 -1.5016282 6761227
0.017591774 -0.1149819 -1.4970125 6628138
0.014186382 -0.11582243 -1.4968143 6694950
0.008657679 -0.11634433 -1.4969461 6891801
0.0035563707 -0.11647976 -1.4972545 7024144
0.0023079664 -0.11201218 -1.4997551 7089176
0.0023416132 -0.1063853 -1.5027844 7613723
0.0023685396 -0.10188385 -1.5052079 7154969
-0.0015449673 -0.11661525 -1.4975629 6631201
-0.0015247613 -0.1132391 -1.4993804 6696231
-0.0014843792 -0.10648692 -1.5030156 6696232
-0.0027327985 -0.10201929 -1.5055161 6827285
-0.0066462755 -0.11675069 -1.4978712 6828326
-0.0070467293 -0.11263563 -1.5001183 6827050
-0.0061651021 -0.10736133 -1.5028942 6826531
-0.0078475922 -0.10440551 -1.5046127 6959374
-0.011747628 -0.11688613 -1.4981794 6891810
-0.010452121 -0.11347617 -1.4999199 6891309
-0.011270911 -0.10824702 -1.5027987 6761255
-0.016801834 -0.10914403 -1.5027287 6564133
-0.021469072 -0.10776771 -1.5038192 6498316
-0.020600915 -0.10474414 -1.5053835 6432792
0.4343425 -0.10397059 -1.4661044 9531232
0.43436277 -0.10058187 -1.4679286 8218970
0.43047518 -0.1085908 -1.4639038 9071672
0.43091995 -0.10556728 -1.4654998 8678720
0.43179584 -0.10177948 -1.4674753 7289403
0.33957577 -0.11326335 -1.4681803 5643029
0.33700198 -0.11559044 -1.4671187 6100009
0.33701557 -0.11333133 -1.468335 6754335
0.3305949 -0.11688998 -1.4668976 8674589
0.16551808 -0.1122384 -1.4817421 6564611
0.16165081 -0.11685862 -1.4795418 6432276
0.16167784 -0.11234041 -1.4819742 6629903
0.16170484 -0.10782214 -1.4844068 6303497
0.16172513 -0.10443348 -1.4862311 5911302
0.16131645 -0.10143262 -1.4878786 6304519
0.15781057 -0.11696062 -1.4797739 6564640
0.15698645 -0.11208852 -1.4824607 6628139
0.1565845 -0.10795811 -1.4847162 6499864
0.15660477 -0.10456945 -1.4865406 6499342
0.15662503 -0.10118074 -1.4883649 6630923
0.15275103 -0.10693056 -1.4855565 6630675
0.15276456 -0.1046714 -1.4867727 6827274
0.15150473 -0.10131671 -1.4886744 6892293
0.14766449 -0.10141871 -1.4889065 7220999
0.14768475 -0.098029993 -1.4907309 7156750
0.14253742 -0.10268422 -1.4886079 7285805
0.036330938 -0.098728202 -1.4986776 6627587
0.029876471 -0.1079346 -1.4941995 6170675
0.03117007 -0.10564154 -1.4953383 6300720
0.031203866 -0.099993721 -1.4983789 6562578
0.027289271 -0.11252086 -1.4919217 5645095
0.027316302 -0.1080026 -1.4943541 6168095
0.027329832 -0.10574348 -1.4955704 6365735
0.027363569 -0.10009567 -1.498611 6432535
0.023422003 -0.11714108 -1.4897213 6234903
0.023476064 -0.10810459 -1.4945863 6560779
0.023489565 -0.10584549 -1.4958025 6627856
0.023523331 -0.10019767 -1.4988431 6695444
0.017879486 -0.11653534 -1.4904618 6367024
0.018342212 -0.11049967 -1.4936795 6824212
0.018355697 -0.10824056 -1.4948956 7152146
0.017947033 -0.1052397 -1.4965432 6957075
0.018403009 -0.10033363 -1.4991525 7022866
0.01190801 -0.11631747 -1.4910257 6696227
0.01322186 -0.11063563 -1.4939889 6891555
0.01323539 -0.10837653 -1.4952052 7022628
0.013255656 -0.10498781 -1.4970295 6958881
0.013282672 -0.1004696 -1.499462 7024917
0.008101508 -0.1107716 -1.4942983 6957585
0.0081150383 -0.1085125 -1.4955146 7022861
0.0081353039 -0.10512377 -1.4973389 7088903
0.0081623346 -0.10060557 -1.4997715 6892555
0.0042612851 -0.1108736 -1.4945304 7023618
0.0042747855 -0.10861444 -1.4957467 7089159
0.0034394115 -0.10562494 -1.4974198 7285780
0.0034664422 -0.10110673 -1.4998523 7155219
-0.0021256208 -0.10878442 -1.4961336 6826544
-0.0021121204 -0.10652532 -1.4973497 6762042
-0.0016539097 -0.1012427 -1.5001618 6827031
-0.0059658736 -0.10888638 -1.4963655 6826538
-0.0085125566 -0.10669525 -1.4977365 6957869
-0.0067697316 -0.10062561 -1.5008767 6761745
-0.013659894 -0.11134949 -1.4956136 6824744
-0.012366295 -0.10905636 -1.4967524 6692652
-0.013619378 -0.10457212 -1.4992622 6630173
-0.012318999 -0.10114944 -1.5010093 6631942
-0.017506897 -0.11258098 -1.4952376 6629925
-0.017486632 -0.10919233 -1.4970618 6629668
-0.017459616 -0.10467406 -1.4994943 6564124
-0.017439336 -0.10128541 -1.5013187 6237202
-0.022654265 -0.11723522 -1.4931145 6367028
-0.022627264 -0.11271695 -1.4955468 6235686
-0.022606969 -0.10932829 -1.4973713 6431250
-0.023873538 -0.10710315 -1.498665 6433036
-0.022984117 -0.10105617 -1.5018567 6497825
-0.027774602 -0.11737118 -1.4934239 6169884
-0.027747571 -0.11285292 -1.4958564 6038547
-0.027727306 -0.10946426 -1.4976808 5973009
-0.027707055 -0.10607555 -1.4995052 6104600
-0.027680025 -0.10155733 -1.5019376 6367526
-0.031614855 -0.1174732 -1.493656 6038286
-0.031587824 -0.11295492 -1.4960885 5971972
-0.032847658 -0.10960023 -1.4979901 5774089
-0.032398432 -0.10582371 -1.4999915 5906952
-0.032800376 -0.1016933 -1.502247 6105092
-0.036633849 -0.1006657 -1.5030873 6104075
0.17066538 -0.10991082 -1.4769197 6434834
0.16678375 -0.11454818 -1.4747111 6365961
0.16809571 -0.10997905 -1.477075 6499073
0.16683799 -0.10547814 -1.479594 6434050
0.1655803 -0.10097722 -1.4821131 6368002
-0.034908324 -0.11536968 -1.4893434 5972761
-0.034881189 -0.11083466 -1.4917849 5905932
-0.034847289 -0.10516589 -1.4948368 5841172
-0.037477985 -0.1154379 -1.4894987 5579301
-0.037444085 -0.10976914 -1.4925506 5709070
-0.038278043 -0.1060127 -1.494637 5644062
-0.038688213 -0.10300074 -1.4962906 5775635
-0.039098427 -0.099988781 -1.4979441 5972231
-0.043807238 -0.099735953 -1.4984324 5972488
0.17065009 -0.11525246 -1.4672123 6299918
0.17196104 -0.11180183 -1.4689736 6367236
0.17327884 -0.10721242 -1.4713479 6173220
0.17201555 -0.10269157 -1.4738783 6367506
0.17204279 -0.098136373 -1.4763306 6431755
0.16806218 -0.11645977 -1.4667552 6168081
0.1681712 -0.098239198 -1.4765646 6432257
-0.038348868 -0.10941622 -1.4859782 5774878
-0.042268172 -0.11749054 -1.4819206 6102530
-0.042240947 -0.11293541 -1.4843729 5317131
-0.042213693 -0.10838028 -1.4868252 5577990
-0.042618901 -0.10421607 -1.4890991 5643803
-0.04345654 -0.10044301 -1.4911948 5840917
-0.046975181 -0.11344057 -1.4844545 5578246
-0.046943396 -0.10812628 -1.4873155 5577218
-0.047348589 -0.10396219 -1.4895896 5643023
-0.047753796 -0.099798039 -1.4918634 5840657
-0.053821728 -0.10754991 -1.4881402 5051396
-0.052503929 -0.10296051 -1.4905145 5511438
-0.052476674 -0.098405324 -1.492967 5644818
-0.056375533 -0.10306327 -1.4907488 5444876
-0.056348294 -0.098508142 -1.493201 5644810
0.18371183 -0.099030495 -1.4692848 6562840
0.17976445 -0.10942054 -1.4639815 6105116
0.17979178 -0.1048486 -1.4664428 6104598
0.17981911 -0.10027666 -1.4689044 6430478
0.17585802 -0.1129526 -1.4623703 6234910
0.17587858 -0.10952368 -1.4642164 6105872
0.17590591 -0.1049518 -1.4666778 5842206
0.17593324 -0.10037985 -1.4691391 6299666
0.17239481 -0.11456824 -1.4617586 6168586
-0.049494907 -0.11436556 -1.4784526 5643273
-0.049467564 -0.10979362 -1.480914 5446407
-0.049453884 -0.10750765 -1.4821447 5380356
-0.053387597 -0.11561171 -1.4780722 5184014
-0.053360254 -0.11103977 -1.4805335 5183760
-0.052903458 -0.10683736 -1.4827635 5117447
-0.053312421 -0.10303896 -1.4848409 5444872
-0.053285062 -0.098467022 -1.4873022 5643536
-0.058568776 -0.11574928 -1.4783852 4724486
-0.058541462 -0.11117739 -1.4808466 4724753
-0.058514103 -0.10660546 -1.483308 4658441
-0.058920801 -0.10242595 -1.4855902 5182729
-0.058893442 -0.097854003 -1.4880517 5512197
-0.063749939 -0.1158869 -1.4786984 4854022
-0.063722581 -0.11131495 -1.4811597 4788486
-0.063695222 -0.10674302 -1.4836211 4984330
-0.063667879 -0.10217114 -1.4860826 4921381
-0.067642629 -0.11713306 -1.4783177 4459267
-0.06752643 -0.097702384 -1.4887786 5247760
0.18369722 -0.11172989 -1.4567512 5712672
0.18459368 -0.10673581 -1.4593751 6104602
0.18505222 -0.10251805 -1.4616137 6301201
0.18551069 -0.098300233 -1.4638519 6563092
0.17976969 -0.11642218 -1.4545166 6039600
0.17979711 -0.11183348 -1.4569869 5973807
0.17500061 -0.11693114 -1.4545988 6301461
0.17589015 -0.1130842 -1.4566052 6169375
-0.070214331 -0.1135021 -1.4747746 4262658
-0.069755822 -0.10928428 -1.477013 4459778
-0.069728374 -0.10469558 -1.4794832 4918788
-0.069700927 -0.10010695 -1.4819536 4657680
-0.073683381 -0.11397656 -1.4747782 4001025
-0.073655933 -0.10938787 -1.4772487 4001281
-0.073628485 -0.10479917 -1.479719 4722446
-0.074901074 -0.10024498 -1.482268 4919050
0.19160017 -0.11238725 -1.4489758 5709319
0.19031507 -0.1089653 -1.4509157 5709835
0.18990973 -0.10398404 -1.4536301 6104075
0.1899327 -0.10014331 -1.4556978 6300432
0.18463162 -0.11334033 -1.4489832 5971733
0.18639785 -0.10906938 -1.4511524 5450006
0.18641853 -0.10561274 -1.4530133 6039062
-0.07736218 -0.1160733 -1.4670929 3867649
-0.077334613 -0.1114645 -1.4695741 3999233
-0.07730706 -0.1068557 -1.4720553 4066049
-0.077279478 -0.10224689 -1.4745365 4525337
-0.079863399 -0.097707428 -1.4771756 4525830
0.19429624 -0.11479577 -1.4417846 5577986
0.19431698 -0.11132658 -1.4436524 5709057
0.19434464 -0.10670095 -1.4461428 5905924
0.19036475 -0.11490016 -1.4420223 5577989
0.18994635 -0.11182805 -1.4437089 5839881
0.19174439 -0.10330139 -1.4481688 6103049
0.18643326 -0.11500456 -1.4422599 6101514
0.18644708 -0.11269179 -1.443505 6429198
-0.080859169 -0.11400883 -1.4627746 3867906
-0.080831513 -0.10938326 -1.4652649 4064513
-0.080803841 -0.10475765 -1.4677552 4131841
-0.080776185 -0.1001321 -1.4702455 4393998
-0.08348015 -0.11407846 -1.4629331 3868419
-0.083431751 -0.10598365 -1.4672911 4000769
-0.08339718 -0.10020167 -1.470404 4262916
0.19177753 -0.11579271 -1.4346052 5316100
0.19450718 -0.099462807 -1.4432001 5971717
-0.087207437 -0.11507228 -1.4558458 3802376
-0.087186605 -0.111588 -1.4577216 3933700
-0.085842639 -0.10690735 -1.4601432 3999746
-0.086251274 -0.10188612 -1.4628792 4000770
-0.089839816 -0.11514218 -1.4560049 3605765
-0.089818999 -0.1116579 -1.4578806 3802629
-0.089791194 -0.10701218 -1.4603819 3868936
-0.089763403 -0.10236646 -1.4628829 3803909
-0.089735627 -0.097720742 -1.465384 4064788
0.19185919 -0.11717147 -1.4281644 5774856
-0.09341675 -0.11658873 -1.449801 3345153
-0.093388885 -0.1119262 -1.4523109 3541251
-0.093347043 -0.10493252 -1.4560761 3737860
-0.094197452 -0.09990485 -1.4588488 3737859
-0.097143486 -0.10827679 -1.4477278 3607041
-0.096240401 -0.10513148 -1.4493548 3737601
-0.09710145 -0.10125289 -1.4515092 3803393
-0.097087443 -0.098911569 -1.4527696 3803393
-0.098326474 -0.11630382 -1.4366606 3410177
-0.098298326 -0.11160108 -1.4391924 3083265
-0.098277226 -0.10807401 -1.4410914 3344641
-0.10182081 -0.10660073 -1.4421499 3605762
-0.10090677 -0.10226638 -1.4444171 3802115
-0.10193399 -0.11428422 -1.4323264 3475713
-0.10190573 -0.10956471 -1.4348674 2886145
-0.1054972 -0.11398559 -1.4327537 4395778
-0.10591705 -0.10967124 -1.4351097 4331521
-0.10633689 -0.10535681 -1.4374658 4462851
-0.1058606 -0.10023224 -1.4401914 4659208
-0.10986487 -0.099158876 -1.441069 5056780
-0.27171788 -0.11407394 -1.4451299 7550249
-0.27706629 -0.11421595 -1.4454532 6828324
-0.28107759 -0.11432247 -1.4456956 6237221
-0.28104937 -0.10960297 -1.4482363 6631992
-0.28102112 -0.10488345 -1.4507773 6960971
-0.28508893 -0.11442898 -1.445938 5646878
-0.28461266 -0.10930441 -1.4486637 6237732
-0.28503242 -0.10498998 -1.4510198 6565925
-0.28634837 -0.1014859 -1.453006 6696984
-0.29088539 -0.11497614 -1.4460764 4920842
-0.29040903 -0.10985155 -1.4488021 5448973
-0.29038087 -0.10513205 -1.4513429 5908500
-0.29080069 -0.10081763 -1.4536989 6104083
-0.29578575 -0.11471307 -1.4465845 4328967
-0.2957575 -0.10999355 -1.4491253 4723722
-0.29572928 -0.10527405 -1.4516662 5118477
-0.29570106 -0.10055455 -1.4542069 5315591
-0.30110586 -0.11013556 -1.4494486 3738123
-0.30062965 -0.10501092 -1.4521742 4132622
-0.29971236 -0.10066108 -1.4544493 4658181
-0.10711502 -0.11543741 -1.425262 4331016
-0.10844363 -0.11310326 -1.4266189 4724994
-0.11104421 -0.098955736 -1.4344363 4991255
-0.26151633 -0.11598332 -1.4365083 7681547
-0.26554477 -0.11609028 -1.4367516 7485459
-0.26596642 -0.11175752 -1.4391178 7682606
-0.26957318 -0.11619723 -1.4369951 7420196
-0.26954484 -0.11145762 -1.4395468 7943470
-0.27220923 -0.10797422 -1.4416229 7813678
-0.27668047 -0.10730313 -1.4423188 7421979
-0.28025895 -0.10700323 -1.4427478 6960935
-0.28023061 -0.10226362 -1.4452994 7288877
-0.28832287 -0.1084021 -1.4425968 5843483
-0.29102266 -0.11084326 -1.4414833 5251345
-0.30177224 -0.11231337 -1.4414945 3738373
-0.30582893 -0.11716 -1.4391862 2426881
-0.30580062 -0.11242039 -1.441738 3015938
-0.30711508 -0.10771637 -1.4443709 3016198
-0.30619389 -0.10334796 -1.4466558 3214093
-0.30571553 -0.098201506 -1.449393 3410693
-0.30985737 -0.11726695 -1.4394298 2425602
-0.31072187 -0.11215615 -1.4422481 1966593
-0.31069827 -0.10820645 -1.4443746 2556673
-0.25794074 -0.11572936 -1.4295475 7549988
-0.2579194 -0.11215953 -1.4314694 7679801
-0.26063773 -0.115801 -1.4297105 7746839
-0.26061639 -0.11223115 -1.4316325 8008487
-0.26239544 -0.10910574 -1.4334495 7614770
-0.26598191 -0.10761464 -1.434521 7682869
-0.26731622 -0.10527059 -1.4358838 7747914
-0.27225131 -0.10381532 -1.4370366 7878962
-0.27268177 -0.10065403 -1.4387722 7814177
-0.27674156 -0.10314134 -1.4377354 7750684
-0.27672023 -0.099571548 -1.4396573 7815447
-0.27941722 -0.099643186 -1.4398203 7550734
-0.31178135 -0.10050259 -1.4417763 2886145
-0.31457803 -0.11723333 -1.4329705 3804930
-0.31455669 -0.11366349 -1.4348923 2294017
-0.31454247 -0.11128363 -1.4361737 1900801
-0.31449974 -0.104144 -1.4400175 2884353
-0.25702092 -0.11437126 -1.4233801 7353383
-0.25968644 -0.10727337 -1.4274039 7548245
-0.25967216 -0.10488346 -1.4286907 7351353
-0.25965077 -0.10129854 -1.4306206 7286046
-0.2623806 -0.10495536 -1.4288542 7482419
-0.26235914 -0.10137044 -1.4307843 7351334
-0.26596797 -0.10106806 -1.431217 7550512
-0.27047724 -0.10039125 -1.4319186 7747391
-0.31927878 -0.11005056 -1.4303616 4784385
-0.31925735 -0.1064657 -1.4322916 3997953
-0.31923592 -0.10288078 -1.4342216 2556161
-0.32198006 -0.10892757 -1.4311687 7156486
-0.32196575 -0.1065376 -1.4324553 6496003
-0.32194436 -0.10295267 -1.4343853 2623745
-0.32191575 -0.098172799 -1.4369587 983297
-0.23978098 -0.11618929 -1.4142816 6169862
-0.24794044 -0.11640592 -1.4147749 7022617
-0.25246871 -0.1157263 -1.4154794 7286301
-0.25335136 -0.11175033 -1.4176877 7221795
-0.25696823 -0.1102467 -1.4187683 7286568
-0.25739521 -0.10585869 -1.4211645 7286067
-0.2587336 -0.10229483 -1.4231848 7285800
-0.25871205 -0.098694764 -1.425123 7285266
-0.32408828 -0.11722819 -1.4200232 8411172
-0.32224393 -0.11198002 -1.4227132 6830086
-0.324038 -0.10882815 -1.4245456 7878410
-0.32675067 -0.10770039 -1.425356 8085007
-0.32672912 -0.10410039 -1.4272943 7885318
-0.3267076 -0.10050038 -1.4292324 5781249
-0.24285857 -0.11738221 -1.4070387 6236175
-0.24328254 -0.11217249 -1.4098774 6432520
-0.24144252 -0.10891072 -1.4114974 6169349
-0.24783459 -0.11229336 -1.4101526 6760976
-0.24872094 -0.10830078 -1.4123701 6630430
-0.24960011 -0.10310312 -1.4152364 6630935
-0.24957128 -0.098282978 -1.4178314 6565131
-0.2523818 -0.11161092 -1.4108602 7089951
-0.25326818 -0.10761826 -1.4130776 7024678
-0.25369695 -0.10321193 -1.4154838 7024668
-0.25366807 -0.098391779 -1.418079 6828551
-0.25776497 -0.098500587 -1.4183264 7089163
-0.32885611 -0.1136416 -1.4154819 8541238
-0.32792655 -0.11040402 -1.4171568 8476447
-0.3328737 -0.10049502 -1.4228656 8999206
-0.33969453 -0.099471323 -1.4239272 8541234
-0.24586812 -0.105295 -1.4069461 6498833
-0.24860351 -0.10415772 -1.4077631 6564902
-0.2485818 -0.10052751 -1.4097176 6433815
-0.33363229 -0.10762548 -1.41225 8477235
-0.33360332 -0.10278523 -1.414856 8673316
-0.3363677 -0.10648827 -1.4130672 8474942
-0.33634597 -0.10285805 -1.4150215 8539961
-0.33905959 -0.098090626 -1.4177933 8540214
-0.34117055 -0.09922266 -1.4105107 8540486
0.026931629 -0.11436039 -1.2137837 8011595
0.053191673 -0.11721875 -1.2157472 7221306
0.053225972 -0.11482295 -1.2158473 7419214
0.056811564 -0.11488603 -1.2161287 7024728
0.061205387 -0.11416453 -1.2165059 6959151
0.066782981 -0.11426266 -1.2169436 6697278
0.0707784 -0.11353414 -1.2172896 6631749
0.017060518 -0.11473098 -1.2170027 8010034
0.020623095 -0.11719766 -1.2171847 8011063
0.020657502 -0.11479425 -1.217285 8010810
0.024220079 -0.11726093 -1.217467 8010044
0.025076754 -0.11326933 -1.2176969 7749697
0.025539495 -0.10887012 -1.2179123 8273460
0.030266665 -0.11376131 -1.2180879 8076854
0.035045438 -0.11504737 -1.2184142 7814466
0.039841421 -0.11513174 -1.2187905 7683926
0.046329752 -0.11428428 -1.2193388 7748410
0.048320398 -0.10927087 -1.2197001 7813951
0.048389211 -0.10446408 -1.2199007 7748685
0.048458025 -0.099657267 -1.2201014 7815478
0.051454641 -0.11373337 -1.219767 7550522
0.051917382 -0.10933416 -1.2199824 7616313
0.051986203 -0.10452735 -1.220183 7550525
0.052055016 -0.099720538 -1.2203836 7618620
0.056661751 -0.11302364 -1.2202082 7222600
0.056713361 -0.10941853 -1.2203587 7156020
0.056782175 -0.10461172 -1.2205594 6828332
0.056850988 -0.099804923 -1.2207601 7157054
0.06265673 -0.11312909 -1.2206787 7223089
0.061509341 -0.1095029 -1.2207351 7287840
0.061578158 -0.10469609 -1.2209358 7025172
0.061646968 -0.099889293 -1.2211365 7025723
0.065054715 -0.11317128 -1.2208669 7025978
0.066305324 -0.10958725 -1.2211114 7092543
0.066374138 -0.10478047 -1.2213122 6829355
0.066425741 -0.10117537 -1.2214626 6894648
0.072214276 -0.11570124 -1.2213311 6497840
0.0711013 -0.10967164 -1.2214879 6894676
0.071564049 -0.10527244 -1.2217032 7091004
0.072420716 -0.10128082 -1.2219331 7351859
0.07582847 -0.11456281 -1.2216636 6235430
0.075897284 -0.10975601 -1.2218642 6432561
0.075948894 -0.1061509 -1.2220148 6826051
0.080624454 -0.11464718 -1.2220399 6827296
0.080693267 -0.10984036 -1.2222406 6825504
0.08074487 -0.10623527 -1.2223911 7023174
0.085420437 -0.11473155 -1.2224163 7225379
0.085489243 -0.10992475 -1.222617 7154742
0.084341854 -0.10629855 -1.2226734 7155267
0.090216406 -0.11481594 -1.2227926 7090493
0.090285219 -0.11000912 -1.2229934 7287093
0.093813397 -0.11487922 -1.2230749 6893105
0.093865015 -0.11127409 -1.2232255 7156267
0.002263248 -0.11273746 -1.2209316 7944243
0.0023150593 -0.10911809 -1.2210828 8337203
0.0058571994 -0.11400744 -1.2211647 7749444
0.0059262812 -0.10918161 -1.2213662 8142412
0.0059781 -0.10556222 -1.2215173 8076343
0.00941661 -0.11769034 -1.221297 8272960
0.010672167 -0.11409214 -1.2215426 7945541
0.010741249 -0.10926631 -1.2217441 8208196
0.011420846 -0.10384783 -1.2220179 8339510
0.012100436 -0.098429352 -1.2222918 8601653
0.015091643 -0.11376764 -1.2219057 8010805
0.015556216 -0.10935102 -1.222122 8140852
0.015642568 -0.10331872 -1.2223738 8339004
0.015711658 -0.098492891 -1.2225752 8403513
0.020319372 -0.11305511 -1.2223487 7945012
0.020371184 -0.10943574 -1.2224997 8272177
0.020457536 -0.10340343 -1.2227517 8403769
0.020939387 -0.097780347 -1.2230182 8534863
0.025272496 -0.10348813 -1.2231296 8338225
0.030001119 -0.10960513 -1.2232555 8076342
0.030087464 -0.10357285 -1.2235075 8273477
0.034764268 -0.11330922 -1.2234823 7944766
0.034816086 -0.10968985 -1.2236334 7945528
0.034902431 -0.10365754 -1.2238853 8143419
0.039579235 -0.11339393 -1.2238601 8011589
0.039631046 -0.10977456 -1.2240112 7880235
0.039717399 -0.10374226 -1.2242632 8011555
0.039803758 -0.097709954 -1.224515 8141876
0.043190457 -0.11345744 -1.2241435 8338495
0.044446014 -0.10985926 -1.2243891 8010302
0.044532366 -0.10382695 -1.2246411 7879746
0.044618726 -0.097794652 -1.2248929 8011307
0.066286072 -0.098175824 -1.2265933 6959422
0.069828212 -0.10306519 -1.2266752 7024953
0.07110104 -0.098260522 -1.226971 7089974
0.075846925 -0.10317108 -1.2271475 7354932
0.075509004 -0.098740339 -1.2273006 7681588
0.080661885 -0.10325578 -1.2275254 7355445
0.080713697 -0.099636406 -1.2276764 7880240
0.08570724 -0.10406858 -1.2278919 7353910
0.085528672 -0.099721104 -1.2280543 7553845
0.090274543 -0.10463165 -1.2282308 7287599
0.096137822 -0.11559565 -1.2282497 6695970
0.095410168 -0.11035356 -1.228405 7091508
0.095323361 -0.10520317 -1.2286073 6828841
0.099749044 -0.11565918 -1.2285331 7024919
0.099818125 -0.11083335 -1.2287346 7090242
0.099480212 -0.10640261 -1.2288878 7288372
0.10456401 -0.11574388 -1.2289109 7484441
0.10463309 -0.11091805 -1.2291125 7287079
0.10468491 -0.10729867 -1.2292635 7287838
-0.0041294545 -0.11316165 -1.2244242 7683368
8.8281929e-05 -0.11384112 -1.2247305 8012073
0.0007873401 -0.10719529 -1.2250558 8468515
0.0020641834 -0.10237548 -1.2253526 8140854
0.0056867972 -0.10243921 -1.225637 8075844
0.0093094185 -0.10250294 -1.2259213 8404545
0.080640845 -0.097704947 -1.231765 8010545
0.085471004 -0.097789913 -1.2321441 7751226
0.090283826 -0.099085152 -1.2324725 7618359
0.093854472 -0.10277969 -1.2326053 7156762
0.095510721 -0.099580616 -1.2328664 7484968
0.10028312 -0.1036998 -1.233077 7682351
0.099535853 -0.099651426 -1.2331823 7551283
0.10470501 -0.10418113 -1.2334076 7419172
0.10475698 -0.10055032 -1.2335593 7419689
0.1093792 -0.11515848 -1.233332 7090191
0.10946585 -0.10910715 -1.2335846 7024651
0.10831029 -0.1054551 -1.2336414 7091475
0.11378375 -0.11685005 -1.2336121 6696230
0.11307113 -0.11038114 -1.2338184 6958116
-0.0098965466 -0.11697187 -1.2288326 7746875
-0.0090303794 -0.112936 -1.2290652 7682123
-0.0081642047 -0.10890016 -1.2292975 7878979
-0.0080946237 -0.10404006 -1.2295004 7813936
-0.0045099556 -0.1077491 -1.2296337 8075798
-0.004042089 -0.10330114 -1.2298515 8141087
-0.0031585172 -0.098050267 -1.2301346 8403766
-0.00085569918 -0.10659805 -1.2299699 8467735
-0.00080351532 -0.102953 -1.230122 8272938
6.8441033e-05 -0.098512143 -1.2303715 8272180
0.093841724 -0.098541349 -1.2377963 7746855
0.10111544 -0.098669291 -1.2383672 7618353
0.10475229 -0.098733276 -1.2386526 7485485
0.10992435 -0.10449581 -1.2388282 7090977
0.10958403 -0.10003361 -1.2389824 7484206
0.11463435 -0.11430129 -1.238803 6761773
0.11470392 -0.10944121 -1.2390059 6892067
0.11315132 -0.10495768 -1.2390649 7024163
0.1132209 -0.1000976 -1.2392678 7286825
0.11866371 -0.11518238 -1.2390863 6301998
0.11794829 -0.10868806 -1.2392932 6826279
-0.02088581 -0.11420846 -1.2330942 7485476
-0.014383331 -0.11350945 -1.2336376 7878962
-0.013443917 -0.10457867 -1.2340747 7748881
-0.011114627 -0.11194018 -1.2339602 7748164
-0.01024507 -0.10788852 -1.2341936 7747623
-0.010175213 -0.1030094 -1.2343973 7813672
-0.0092940181 -0.098144561 -1.2346647 8207152
-0.0061068013 -0.10226758 -1.2347497 8468523
-0.0060544163 -0.09860824 -1.2349024 8599348
0.11557896 -0.10562836 -1.2442497 7023920
0.11564881 -0.10074924 -1.2444534 7090221
0.12032485 -0.11425245 -1.2442752 6300979
0.11956006 -0.11098543 -1.2443473 6630693
0.11881855 -0.10609204 -1.2444874 6892341
0.11890004 -0.10039975 -1.2447251 6958893
0.12395848 -0.11553645 -1.2445109 6367527
0.1228113 -0.11063592 -1.244619 6564879
0.12286368 -0.10697658 -1.2447718 6695444
-0.023823485 -0.11237788 -1.2379557 7682360
-0.019762576 -0.11326589 -1.2382413 7682598
-0.019704133 -0.1091841 -1.2384117 7879192
-0.019634023 -0.10428596 -1.2386162 7813407
-0.016492814 -0.11250684 -1.238531 8011052
-0.015218437 -0.10885473 -1.2387803 7944718
-0.015549734 -0.10354124 -1.2389698 8010268
-0.015078202 -0.099058434 -1.2391893 8206628
-0.011430398 -0.10034744 -1.2394258 8141355
0.12048665 -0.10511781 -1.2496789 6893107
0.12052172 -0.10266875 -1.2497811 6958892
0.12528612 -0.11132647 -1.2498068 6564880
0.12454756 -0.10600582 -1.2499644 6695199
0.12420458 -0.10150869 -1.2501199 6957859
0.12888134 -0.11628909 -1.24989 6169910
0.12895146 -0.11139095 -1.2500944 6300689
0.12902157 -0.1064928 -1.2502989 6367529
0.12786992 -0.10157317 -1.2504075 6630444
0.13254666 -0.11635357 -1.2501776 5906213
-0.029191777 -0.11526977 -1.2414291 7549457
-0.025911868 -0.11450838 -1.2417198 7681573
-0.024201542 -0.10921429 -1.2420702 7747884
-0.024148792 -0.10552928 -1.242224 7616313
-0.021732807 -0.10802907 -1.2423139 7746842
-0.021662474 -0.10311571 -1.2425189 7747893
-0.019981489 -0.099868879 -1.242784 7944739
0.13036171 -0.10210414 -1.2545992 6368305
0.1279633 -0.098375991 -1.2545607 6564393
0.13505301 -0.1169305 -1.2543685 5840668
0.13389775 -0.11199556 -1.2544775 5971983
0.1339681 -0.10708219 -1.2546825 6103861
0.13362405 -0.1025711 -1.2548387 6103603
0.13750413 -0.11697361 -1.2545608 5707027
-0.031366333 -0.11425777 -1.2463177 7484702
-0.029661179 -0.10976526 -1.2466352 7679780
-0.02720052 -0.10980853 -1.2468283 7811111
-0.025899589 -0.10489778 -1.2471308 7550783
-0.024598658 -0.09998703 -1.2474333 7551005
-0.022120357 -0.098797217 -1.2476779 7749144
0.13536093 -0.10156763 -1.2600366 6037539
0.13376759 -0.098250493 -1.2600452 6104867
0.14005272 -0.11768448 -1.2597536 5574924
0.13848881 -0.1123122 -1.259848 5707779
0.13773331 -0.1077764 -1.2599723 5840400
0.13778627 -0.1040771 -1.2601268 5908246
-0.041022852 -0.11722869 -1.2504523 7288875
-0.04013449 -0.11270437 -1.2507063 7354668
-0.040081337 -0.10899079 -1.2508614 7419151
-0.036429286 -0.11276954 -1.2509971 7484956
-0.035952628 -0.10823798 -1.2512189 7484688
-0.032706365 -0.11159688 -1.2513396 7615001
-0.031823903 -0.10748518 -1.2515764 7549989
-0.031347245 -0.10295358 -1.2517983 7419452
-0.03005901 -0.099261761 -1.2520502 7550507
-0.027642041 -0.10301878 -1.252089 7288634
-0.027571157 -0.098067343 -1.2522957 7812131
0.13792813 -0.10097879 -1.2652837 5840921
0.1418383 -0.11549291 -1.2650039 5575940
0.14190917 -0.11054146 -1.2652106 5576965
0.14156246 -0.10599542 -1.2653679 5775372
0.14039828 -0.10102226 -1.2654777 5709842
-0.046521664 -0.11366284 -1.2551813 7352890
-0.045635819 -0.10953532 -1.2554191 7482924
-0.043209553 -0.11330679 -1.2554581 7287087
-0.042305917 -0.10793667 -1.2557478 7417888
-0.041827425 -0.10338768 -1.2559705 7484718
-0.040516451 -0.098439038 -1.2562753 7354161
-0.038161337 -0.10718095 -1.2561067 7550242
-0.036868155 -0.10347493 -1.2563597 7484991
-0.036797017 -0.098504484 -1.2565671 7550767
-0.032245085 -0.098170236 -1.2569412 7681581
0.14297631 -0.10166703 -1.2706753 5707788
0.14606309 -0.11705078 -1.270295 5379841
0.14531362 -0.11165157 -1.2704549 5511172
0.14538479 -0.10668111 -1.2706624 5904647
0.14545593 -0.10171065 -1.27087 5707015
-0.051335424 -0.11756343 -1.2596617 7286579
-0.048774868 -0.11261772 -1.2600653 7482675
-0.047476739 -0.10889749 -1.2603192 7548454
-0.046160743 -0.10392991 -1.2606251 7680813
-0.043600202 -0.098984212 -1.2610288 7158312
0.14786601 -0.11607701 -1.2754972 5247234
0.14791957 -0.11233489 -1.2756535 5313540
0.147991 -0.1073454 -1.2758617 5640453
0.14806244 -0.10235593 -1.27607 5574659
0.15039083 -0.11362606 -1.2757967 5116419
-0.053164557 -0.1144447 -1.2646632 7352133
-0.051843554 -0.10945816 -1.2649704 7548964
-0.051771849 -0.10444964 -1.2651795 7746120
-0.051700145 -0.099441126 -1.2653886 7617062
-0.049327001 -0.10824999 -1.2652187 7680049
-0.049273223 -0.1044936 -1.2653755 7877435
-0.04795222 -0.099507064 -1.2656827 7617312
0.15298937 -0.1168189 -1.2808926 4852994
0.15221626 -0.11263049 -1.2810016 5050629
0.15186554 -0.10803202 -1.2811605 5313289
0.15193725 -0.1030235 -1.2813696 5444100
0.15075962 -0.097993001 -1.2814807 5508879
-0.063853145 -0.11617041 -1.2687664 7090762
-0.058818936 -0.11500177 -1.2692126 7090241
-0.058746964 -0.10997421 -1.2694225 7221296
-0.057420924 -0.10496873 -1.2697308 7484458
-0.057366937 -0.10119806 -1.2698882 7419144
-0.054984778 -0.1100404 -1.2697177 7483690
-0.054912806 -0.10501285 -1.2699276 7549497
-0.054840833 -0.099985287 -1.2701375 7549985
0.15340438 -0.098619923 -1.2866844 5509134
0.15695062 -0.11376874 -1.2863499 4984584
0.15576854 -0.10871914 -1.2864615 5182736
0.15584052 -0.10369158 -1.2866713 5445129
0.15591249 -0.098664045 -1.2868812 5509133
0.16069481 -0.11509182 -1.2865927 5179669
-0.069132894 -0.11589749 -1.2733793 7156781
-0.06823349 -0.11170676 -1.2736207 7156779
-0.064493209 -0.1142965 -1.2738118 6959933
-0.064439029 -0.11051157 -1.2739698 7090734
-0.064366788 -0.10546499 -1.2741805 7419178
-0.063035727 -0.10044056 -1.27449 7222061
-0.060590371 -0.10553142 -1.2744769 7418921
-0.059672907 -0.10007906 -1.274771 7157288
0.16090466 -0.11321382 -1.2917055 5115167
0.15970005 -0.10940675 -1.2917647 4919325
0.15851347 -0.10433803 -1.2918767 5247758
0.15856765 -0.1005531 -1.2920346 5444616
0.1634042 -0.11451977 -1.2918504 5049130
-0.074014097 -0.11478077 -1.2780579 7288096
-0.07146886 -0.11355881 -1.2783091 7288355
-0.069705576 -0.10810071 -1.2786704 7484457
-0.070060283 -0.10344984 -1.2788312 7746616
-0.068742335 -0.099672854 -1.279089 7418684
-0.066251516 -0.10225011 -1.2791816 7418934
-0.065348715 -0.098043591 -1.279424 7417913
0.16118732 -0.10625121 -1.2970304 4985618
0.16124171 -0.10245201 -1.2971891 5314060
0.16488731 -0.1126499 -1.2970636 4919086
0.16367814 -0.10882847 -1.2971231 4855592
-0.077241763 -0.11410427 -1.2828496 7285786
-0.077150762 -0.10774848 -1.2831149 7418140
-0.077096179 -0.103935 -1.2832741 7418147
-0.077023387 -0.098850369 -1.2834864 7352095
-0.074686974 -0.11287773 -1.2831017 7353621
-0.073792934 -0.10950285 -1.2833097 7418913
-0.074559599 -0.10397962 -1.2834731 7615272
-0.07321851 -0.098917305 -1.283785 7485483
-0.069395423 -0.097713083 -1.2841367 7548469
0.16148897 -0.097960338 -1.3024108 5772568
0.16636197 -0.11203234 -1.3022252 4987428
0.16557711 -0.10778028 -1.3023359 4920340
0.16395275 -0.1030896 -1.3023976 5116175
0.16400735 -0.099276125 -1.3025569 5379092
0.16882578 -0.11716159 -1.302212 4984338
0.16888037 -0.11334811 -1.3023713 4919054
-0.083218426 -0.11605272 -1.2883209 7549226
-0.0830722 -0.10583778 -1.2887473 7220758
-0.080652177 -0.11482069 -1.2885741 7416603
-0.07973583 -0.11015378 -1.2888362 7416851
-0.080505937 -0.10460573 -1.2890006 7287070
-0.080432832 -0.099498272 -1.2892139 7417624
0.16672151 -0.10384619 -1.30861 4919568
0.1659514 -0.098298162 -1.3087744 5379348
0.16919637 -0.10899848 -1.3085967 4919818
0.16926949 -0.10389102 -1.3088099 4853265
-0.089071155 -0.11660153 -1.292855 7351844
-0.085636735 -0.1149527 -1.2931939 7352607
-0.085143209 -0.11026089 -1.2934235 7221270
-0.08506982 -0.1051344 -1.2936376 7155475
-0.083736047 -0.10131203 -1.2938985 7351569
0.16954586 -0.099357992 -1.3140358 5182989
0.17316189 -0.11480497 -1.3136948 4920068
0.17323528 -0.10967848 -1.3139088 4920071
0.17201158 -0.1058111 -1.313969 4722956
0.17210333 -0.099402979 -1.3142365 5051671
0.17701647 -0.11359084 -1.3140494 5118465
-0.1052113 -0.11568266 -1.296634 6432278
-0.10266274 -0.1170142 -1.2967817 6630423
-0.091514677 -0.11549471 -1.2977263 7220505
-0.089735836 -0.11080807 -1.2980574 7156246
-0.087076783 -0.10442132 -1.2985274 7089676
-0.085738048 -0.10058476 -1.2987893 7417097
0.17395985 -0.10472445 -1.3191872 4855051
0.17488301 -0.10002275 -1.3194512 5116961
0.17893419 -0.1159634 -1.3191246 4855553
0.17730266 -0.11035897 -1.319223 5117452
0.17735791 -0.10649982 -1.3193842 4855051
0.17743155 -0.1013543 -1.319599 5247759
-0.10230161 -0.11521782 -1.3029069 6695952
-0.097144902 -0.11530854 -1.3033116 6958342
-0.09324035 -0.1127924 -1.303723 7154966
-0.093203366 -0.11020821 -1.3038309 7024663
-0.091435134 -0.1067929 -1.3041097 6894094
-0.087898657 -0.099962205 -1.3046671 7417090
0.18015844 -0.11113992 -1.3254411 4856338
0.17767254 -0.10463411 -1.3255085 5051653
0.17774653 -0.099465743 -1.3257242 4985368
-0.10430205 -0.109339 -1.3080071 6499376
-0.10424635 -0.10544845 -1.3081696 6232856
-0.10047595 -0.11329783 -1.3081493 6827536
-0.099126339 -0.10943006 -1.3084133 6827789
-0.09659417 -0.11336613 -1.3084539 7023887
-0.096538484 -0.10947558 -1.3086164 6959120
-0.093007565 -0.10391662 -1.309122 7024903
0.18293124 -0.11568916 -1.3304958 4594177
0.18045478 -0.10786255 -1.3306177 4789772
0.18049189 -0.10526885 -1.3307259 4855297
0.18052903 -0.10267515 -1.3308342 4919044
-0.10516167 -0.11384812 -1.3127757 6696743
-0.10250843 -0.109989 -1.3131425 6696479
-0.10113522 -0.10480542 -1.3134618 6563590
-0.099761993 -0.099621862 -1.3137811 6630662
-0.097239196 -0.10487397 -1.3137676 6893828
-0.095865965 -0.099690393 -1.3140869 7023366
-0.091969967 -0.099758923 -1.3143926 7220743
0.18321845 -0.11371355 -1.3356186 4528903
0.18327436 -0.10980874 -1.3357817 4725003
0.18333024 -0.10590392 -1.3359447 4724482
0.1808261 -0.099350214 -1.3360125 4723206
0.18577856 -0.11636245 -1.3357137 4528641
0.18366829 -0.10399675 -1.3420727 4656390
0.18372443 -0.10007483 -1.3422364 4525321
0.18741295 -0.11583143 -1.3418885 4332043
0.18618345 -0.11057922 -1.3420045 4462340
0.18651837 -0.10593492 -1.3472395 4591366
0.1865935 -0.10068664 -1.3474587 4459533
0.19029543 -0.11650059 -1.3471096 4133913
0.18906146 -0.11122927 -1.3472259 4265219
0.18921173 -0.1007327 -1.3476641 4394759
0.19195764 -0.11595386 -1.3532871 4199188
0.19201423 -0.11200052 -1.3534522 4263170
0.19077487 -0.10670628 -1.353569 4393986
0.19216515 -0.1014583 -1.3538923 4263681
0.1958832 -0.11734104 -1.3535417 4460296
0.19639067 -0.11251688 -1.3537778 4458497
0.19610958 -0.10152769 -1.3542019 4067329
0.19982764 -0.11741042 -1.3538512 4852225
0.19988424 -0.11345708 -1.3540163 4851457
0.19495103 -0.11132875 -1.3587319 4327937
0.19632742 -0.10738434 -1.359001 4326657
-0.25726762 -0.11686689 -1.345786 5250052
-0.2749739 -0.11461371 -1.3504989 4983564
-0.2758204 -0.11099756 -1.3505788 5049605
-0.27620497 -0.10648923 -1.3507314 5115400
-0.27093264 -0.11468479 -1.350816 5049628
-0.27087465 -0.11063442 -1.3509852 5180949
-0.27081665 -0.10658401 -1.3511542 5180459
-0.26554427 -0.11477959 -1.351239 4986687
-0.26548627 -0.1107292 -1.351408 5182510
-0.26586446 -0.10577083 -1.3515794 5248057
-0.26015595 -0.11487439 -1.3516618 5315347
-0.26009795 -0.11082399 -1.3518308 5380624
-0.26002064 -0.10542348 -1.3520564 5444637
-0.25476757 -0.11496918 -1.3520846 5381633
-0.25515214 -0.11046085 -1.3522373 5445890
-0.24937919 -0.11506397 -1.3525075 5445411
-0.29136673 -0.10557991 -1.3555914 3738882
-0.28995577 -0.1015362 -1.3558674 4722180
-0.2856147 -0.11336614 -1.3557307 4525850
-0.28601384 -0.10974263 -1.3558463 4591873
-0.28595561 -0.1056751 -1.356016 4525825
-0.28589737 -0.10160759 -1.3561859 4722179
-0.2811183 -0.11434935 -1.3560468 4722446
-0.28060269 -0.10983783 -1.3562709 4985089
-0.2809889 -0.10531044 -1.3564242 5116676
-0.28048623 -0.10170278 -1.3566105 5183237
-0.27511391 -0.10450965 -1.356922 5312036
-0.27505568 -0.10044214 -1.3570918 5510413
-0.27105558 -0.10458106 -1.3572404 5312339
-0.26964456 -0.10053733 -1.3575164 5575705
-0.2656444 -0.10467625 -1.3576652 5445176
-0.26558617 -0.10060872 -1.3578349 5576485
-0.26152784 -0.10068011 -1.3581535 5642004
-0.2549386 -0.11300166 -1.3581748 5710337
-0.25619432 -0.10619867 -1.3583517 5248007
-0.25657409 -0.10121933 -1.3585238 5576199
-0.25088027 -0.11307305 -1.3584933 5708050
-0.25219423 -0.11033759 -1.3585004 5577217
-0.25213599 -0.10627005 -1.3586701 5181697
-0.25207776 -0.10220253 -1.35884 5247234
-0.24684131 -0.11450028 -1.3587552 4985365
-0.2945329 -0.11304156 -1.3610616 4591105
-0.29629225 -0.1093789 -1.361071 4197890
-0.29435745 -0.10078764 -1.3615731 4787974
-0.29093623 -0.11492069 -1.3612701 4526110
-0.29177693 -0.11036626 -1.3613884 4001281
-0.29026246 -0.099497795 -1.3619498 4854279
-0.28618705 -0.099569485 -1.3622696 4854021
-0.28211159 -0.099641174 -1.3625895 5249284
-0.25630045 -0.10009524 -1.3646151 5509381
-0.25100297 -0.10972166 -1.3646436 5116673
-0.2509445 -0.10563701 -1.3648142 4984321
-0.25178516 -0.10108259 -1.3649325 5115138
-0.24564704 -0.11526345 -1.3648427 4526600
-0.24738684 -0.11023924 -1.3649089 4787202
-0.24822754 -0.10568482 -1.3650273 4786434
-0.24818856 -0.10296172 -1.365141 4852738
-0.24203089 -0.11578102 -1.365108 4001796
-0.22393081 -0.11700736 -1.3664916 5185537
-0.30535671 -0.11449932 -1.3661689 4064781
-0.30575922 -0.1108453 -1.3662853 3998466
-0.30423844 -0.09993124 -1.3668491 4722949
-0.30172539 -0.11501907 -1.3664353 4000517
-0.3016471 -0.10955004 -1.3666636 4066822
-0.30156878 -0.104081 -1.366892 4525828
-0.30151007 -0.099979237 -1.3670632 4788231
-0.29809409 -0.11553881 -1.3667017 4132866
-0.2988404 -0.104129 -1.3671061 4590596
-0.29878169 -0.10002723 -1.3672773 4853511
-0.24967134 -0.10089117 -1.3711313 4984065
-0.24706045 -0.10914272 -1.371003 4590083
-0.24700171 -0.10504094 -1.3711742 4787459
-0.24694297 -0.10093917 -1.3713455 4984577
-0.24168202 -0.11470774 -1.3712028 4524802
-0.24298745 -0.11058196 -1.3712671 4328707
-0.24290916 -0.10511293 -1.3714954 4590600
-0.24421462 -0.10098717 -1.3715596 4985608
-0.23760906 -0.116147 -1.371467 4327681
-0.23799202 -0.11112572 -1.3716406 4065538
-0.23261359 -0.11669074 -1.3718405 4065537
-0.2280598 -0.11631498 -1.3722163 4984833
-0.22800109 -0.11221321 -1.3723876 5442561
-0.3116248 -0.11146712 -1.3718194 4129044
-0.30747586 -0.10879348 -1.3722565 3737090
-0.30741689 -0.10467459 -1.3724284 4393474
-0.30733827 -0.09918274 -1.3726578 4656645
-0.30320901 -0.097882062 -1.3730376 4854282
-0.24029312 -0.10585542 -1.3776962 4327950
-0.24158436 -0.10033947 -1.377818 4655636
-0.23579893 -0.11096996 -1.3778445 3147781
-0.23664668 -0.10637736 -1.3779639 4065041
-0.23747474 -0.10041176 -1.3781404 4920094
-0.23221147 -0.11561078 -1.3779399 4524545
-0.23215249 -0.11149187 -1.378112 4327173
-0.3133584 -0.10940361 -1.3777897 3539216
-0.31331888 -0.10664625 -1.3779049 3932429
-0.31184468 -0.099777088 -1.3783007 4590343
-0.23624757 -0.10524404 -1.3840653 4789520
-0.23618838 -0.10110803 -1.384238 5383953
-0.23351619 -0.10667111 -1.3842236 4989966
-0.233457 -0.10253508 -1.3843963 5648385
-0.32187906 -0.09888944 -1.3835657 5379895
-0.31789377 -0.11003742 -1.3834286 5908768
-0.31785414 -0.10726863 -1.3835441 5117210
-0.31773522 -0.098962337 -1.3838909 4327699
-0.31505194 -0.10454848 -1.3838766 4392205
-0.31497267 -0.099010944 -1.3841077 4655882
-0.32245201 -0.1106708 -1.3890656 8277040
