# .PCD v0.7 - Point Cloud Data file format
VERSION 0.7
FIELDS x y z rgba
SIZE 4 4 4 4
TYPE F F F U
COUNT 1 1 1 1
WIDTH 1263
HEIGHT 1
VIEWPOINT 0 0 0 1 0 0 0
POINTS 1263
DATA ascii
-0.64296001 0.31691998 1.197 262659
-0.63839996 0.31691998 1.197 393985
-0.63422006 0.31730002 1.197 591365
-0.66097206 0.32216397 1.197 196867
-0.65663999 0.32262 1.197 131329
-0.65170002 0.32337999 1.197 327952
-0.64729202 0.32307598 1.197 196892
-0.64296001 0.32376 1.197 197385
-0.63839996 0.32262003 1.197 328705
-0.6333515 0.32262 1.197 329987
-0.62358004 0.32376 1.197 790017
-0.66005999 0.32718 1.197 131329
-0.65777999 0.32718 1.197 131329
-0.65170002 0.32793999 1.197 196874
-0.64752001 0.32832 1.197 65804
-0.64296001 0.32832 1.197 196867
-0.63954002 0.32832 1.197 262913
-0.63156003 0.32832 1.197 461572
-0.62358004 0.32832 1.197 594433
-0.65094 0.33288002 1.197 65798
-0.64638001 0.33288002 1.197 65798
-0.64296001 0.33288002 1.197 131330
-0.63839996 0.33288002 1.197 393729
-0.63270003 0.33288002 1.197 1049863
-0.62738001 0.33250004 1.197 986383
-0.62243998 0.33288002 1.197 723458
-0.65663999 0.33858001 1.197 131332
-0.65246004 0.33706003 1.197 65795
-0.64790004 0.33706003 1.197 65804
-0.64296001 0.33630002 1.197 262660
-0.63954002 0.33630002 1.197 591617
-0.62699997 0.33744001 1.197 657924
-0.62243998 0.33744001 1.197 329217
-0.65663999 0.34200001 1.197 131333
-0.65208006 0.34314001 1.197 131330
-0.64866 0.34314001 1.197 131343
-0.62586004 0.34200001 1.197 527878
-0.62358004 0.34200001 1.197 397579
-0.61674005 0.34314001 1.197 264968
-0.65550005 0.3477 1.197 262402
-0.65094 0.34656 1.197 196866
-0.64866 0.34656 1.197 65797
-0.62643003 0.34827 1.197 592904
-0.61674005 0.34542 1.197 134158
-0.61446005 0.34656 1.197 724245
-0.65663999 0.35339999 1.197 131329
-0.64714003 0.35378 1.197 327939
-0.64296001 0.35453999 1.197 590593
-0.63954002 0.35453999 1.197 329217
-0.62586004 0.35339999 1.197 788743
-0.65549999 0.35796002 1.197 65793
-0.64714003 0.35834002 1.197 393473
-0.64296001 0.35796002 1.197 721921
-0.63878 0.35758004 1.197 591361
-0.62586004 0.35796002 1.197 1445125
-0.65626001 0.36290002 1.197 65793
-0.65208006 0.36252001 1.197 65793
-0.64752001 0.36252001 1.197 65795
-0.64258003 0.36214003 1.197 132353
-0.62586004 0.36138001 1.197 659714
-0.62358004 0.36252001 1.197 659458
-0.66005999 0.36708 1.197 131351
-0.65777999 0.36594 1.197 131337
-0.65170002 0.36670002 1.197 65796
-0.64638001 0.36594 1.197 131333
-0.62699997 0.36822 1.197 397320
-0.62358004 0.36594 1.197 790019
-0.66234004 0.37202001 1.197 65802
-0.62661999 0.37126002 1.197 526854
-0.66690004 0.37734002 1.197 65805
-0.66462004 0.37734002 1.197 65815
-0.62661999 0.37734002 1.197 527109
-0.66689998 0.38304001 1.197 66054
-0.66461998 0.38304001 1.197 65801
-0.62813997 0.38304001 1.197 656912
-0.66689998 0.3876 1.197 131335
-0.66461998 0.38646001 1.197 262409
-0.62661999 0.38797998 1.197 790026
-0.62358004 0.38646001 1.197 658978
-0.66689998 0.39216 1.197 196876
-0.66348004 0.39216 1.197 262414
-0.65777999 0.3933 1.197 65795
-0.63042003 0.3933 1.197 395787
-0.62661999 0.39253998 1.197 592389
-0.62358004 0.39102 1.197 527365
-0.67602003 0.39786002 1.197 65799
-0.67373997 0.39786002 1.197 65805
-0.66803998 0.39671999 1.197 196870
-0.66234004 0.39672002 1.197 131335
-0.65702003 0.39710003 1.197 65797
-0.65208 0.39671999 1.197 66051
-0.63042003 0.39557999 1.197 461324
-0.62813997 0.39671999 1.197 854531
-0.67602003 0.40355998 1.197 65794
-0.67298001 0.40393996 1.197 65794
-0.66826802 0.40196401 1.197 131332
-0.66233999 0.40242001 1.1970001 131334
-0.65549999 0.40242001 1.197 65800
-0.63042003 0.40127999 1.197 527879
-0.62813997 0.40013999 1.197 789761
-0.67602003 0.40812001 1.197 65800
-0.67222011 0.40774 1.197 65801
-0.66842002 0.40850002 1.197 65794
-0.66290998 0.40869001 1.197 196866
-0.65549999 0.40926 1.197 66052
-0.62813997 0.40812001 1.197 658435
-0.67602003 0.41268 1.197 131331
-0.67222011 0.41306001 1.197 131330
-0.66918004 0.41268 1.197 131330
-0.66461998 0.41268 1.197 262408
-0.62699997 0.41268 1.197 461828
-0.62282002 0.41229999 1.197 395779
-0.67602003 0.41723999 1.197 196865
-0.67221999 0.41685998 1.197 131329
-0.66461998 0.4161 1.197 196873
-0.63042003 0.4161 1.197 594690
-0.62813997 0.41723999 1.197 659970
-0.66766 0.42218003 1.197 131340
-0.66461998 0.42180002 1.197 196896
-0.62699997 0.42180002 1.197 855043
-0.62129998 0.42180002 1.197 526851
-0.61901999 0.42180002 1.197 395780
-0.66918004 0.42522001 1.197 66306
-0.63042003 0.42864001 1.197 463370
-0.62813997 0.42750001 1.197 527880
-0.61810797 0.427044 1.197 329475
-0.67146003 0.43434 1.197 65795
-0.66918004 0.43434 1.197 131843
-0.63042003 0.4332 1.197 790544
-0.62738001 0.43358001 1.197 985864
-0.62129998 0.4332 1.197 526082
-0.61787999 0.4332 1.197 460554
-0.61331999 0.4332 1.197 328218
-0.67602003 0.43889999 1.197 131333
-0.63042003 0.43889999 1.197 855054
-0.62699997 0.43776 1.197 854275
-0.62243998 0.43776 1.197 787457
-0.62699997 0.44231999 1.197 461575
-0.62243998 0.44231999 1.197 526593
-0.61901999 0.44345999 1.197 592385
-0.62699997 0.44688001 1.197 592899
-0.62243998 0.44688001 1.197 526593
-0.61901999 0.44802001 1.197 459780
-0.63042003 0.45372 1.197 723970
-0.62722796 0.45258003 1.197 723201
-0.62358004 0.45486 1.197 723713
-0.61901999 0.45258003 1.197 461061
-0.67602003 0.45942003 1.197 65793
-0.62586004 0.45714 1.197 658689
-0.62243998 0.45942003 1.197 920065
-0.61901999 0.45714 1.197 592387
-0.62661999 0.46246001 1.197 857089
-0.62129998 0.46398002 1.197 723457
-0.61901999 0.46284002 1.197 591617
-0.62586004 0.46740001 1.197 594433
-0.62358004 0.46740001 1.197 330497
-0.61901999 0.46854001 1.197 133633
-0.62586004 0.47196001 1.197 593665
-0.62129998 0.47310001 1.197 200961
-0.61674005 0.47196001 1.197 198657
-0.61331999 0.47310001 1.197 197633
-0.63042003 0.4788 1.197 725513
-0.62813997 0.47766003 1.197 725261
-0.61674005 0.47538 1.197 264195
-0.61331999 0.47652 1.197 197633
-0.63118005 0.48374003 1.197 660226
-0.63042003 0.48678002 1.197 593921
-0.62586004 0.48678002 1.197 396801
-0.62129998 0.48905998 1.197 264964
-0.61901999 0.48678002 1.197 198660
-0.63042003 0.49362001 1.197 593423
-0.62738001 0.49286002 1.197 396296
-0.62358004 0.49247998 1.197 265224
-0.63194007 0.49665999 1.197 855832
-0.62586004 0.49590001 1.197 265227
-0.63042003 0.50160003 1.197 723976
-0.62358004 0.50160003 1.197 264717
-0.63042003 0.50730002 1.197 528132
-0.62699997 0.50787002 1.197 462087
-0.62358004 0.50844002 1.197 395272
-0.62586004 0.51413995 1.197 592918
-0.62282002 0.51337999 1.197 592135
0.07440953 -0.065251425 1.202 131610
0.078225404 -0.066014603 1.202 131878
0.073646352 -0.061435558 1.202 131342
0.077843815 -0.061817143 1.202 131361
0.081278101 -0.06067238 1.202 132901
0.073264763 -0.057238095 1.202 65798
0.077462226 -0.057619683 1.202 131351
0.08242286 -0.057238095 1.202 132641
0.069830477 -0.051514287 1.202 66323
0.072119996 -0.05265905 1.202 66071
0.082804449 -0.052277461 1.202 133151
0.06868571 -0.048079997 1.202 66058
0.083567619 -0.04922476 1.202 198683
0.087001905 -0.046935238 1.202 134183
0.066777781 -0.043119367 1.2020001 65798
0.083567619 -0.044645716 1.202 133394
0.087001905 -0.042356189 1.202 68381
0.09043619 -0.040066667 1.202 199727
0.062961906 -0.036632381 1.202 66311
0.091962546 -0.03701397 1.202 199749
0.058382858 -0.030908573 1.202 66060
0.061817139 -0.032053337 1.202 66053
0.095015235 -0.032053337 1.202 395821
0.058382858 -0.027474286 1.202 66059
0.061435558 -0.027855873 1.202 65803
0.096541584 -0.027855873 1.202 265262
0.04922476 -0.021750478 1.202 66050
0.05265905 -0.021750478 1.202 66306
0.057619683 -0.022513654 1.202 66061
0.06067238 -0.024040001 1.202 65823
0.097304761 -0.024040001 1.202 199471
0.04922476 -0.018316191 1.202 131334
0.052277461 -0.01869778 1.202 66054
0.056093335 -0.019460952 1.202 66307
0.048080005 -0.012592382 1.2020001 66055
0.099594288 -0.012592381 1.202 132900
0.10188381 -0.012592381 1.202 132899
0.044645716 -0.0057238098 1.202 131590
0.046935238 -0.0080133341 1.202 66819
0.10417333 -0.006868572 1.202 199209
0.042356189 -0.0022895238 1.2020001 131336
0.10417333 -0.0034342855 1.202 265005
0.10722604 -0.0019079365 1.202 395824
0.037777144 0.0022895238 1.202 65799
0.040066667 0.0011447619 1.202 65797
0.10875238 0.0022895238 1.202 68901
0.10875238 0.006868572 1.202 134181
0.037777144 0.010302857 1.202 65795
0.10341017 0.014118731 1.202 197412
0.10798921 0.012592381 1.202 133667
0.1110419 0.011447619 1.202 134704
-0.60557908 0.14881904 1.202 263425
-0.60557908 0.15225333 1.202 197633
-0.64221144 0.20949143 1.202 197634
-0.63877714 0.20949143 1.202 132099
-0.64221144 0.21178097 1.202 393735
-0.63877714 0.21292572 1.202 132109
-0.64755362 0.2171232 1.202 131332
-0.64373779 0.21712318 1.202 131842
-0.63809031 0.21773373 1.202 262917
-0.63763237 0.22208381 1.2020001 328462
-0.6433562 0.24383429 1.202 66055
-0.63809031 0.24291849 1.202 198150
-0.6433562 0.24612381 1.202 131850
-0.63763237 0.24726859 1.2020001 329483
-0.6330533 0.24841334 1.202 920067
-0.63534284 0.25299236 1.202 459778
-0.63190854 0.25299236 1.202 656387
-0.6284743 0.25299236 1.202 853253
-0.65251434 0.2587162 1.202 131334
-0.64793527 0.25757146 1.2020001 196880
-0.64450097 0.25757143 1.202 328193
-0.63734615 0.25785762 1.202 262661
-0.63213748 0.25757143 1.202 395009
-0.62847435 0.25757143 1.202 527366
-0.65251434 0.26329523 1.202 66050
-0.64793521 0.26329523 1.202 131589
-0.64450097 0.26444 1.202 197377
-0.63763237 0.26329526 1.2020001 262914
-0.6330533 0.26329523 1.202 395010
-0.62771118 0.26367682 1.202 657155
-0.65251434 0.2678743 1.202 131329
-0.64793521 0.2678743 1.202 131587
-0.63763237 0.2678743 1.2020001 263170
-0.6330533 0.2678743 1.202 525318
-0.62732953 0.26672953 1.202 788484
-0.65251434 0.27245334 1.202 262402
-0.64793521 0.27245334 1.202 131587
-0.64450097 0.27245334 1.202 131842
-0.63705999 0.27188095 1.202 263171
-0.63229012 0.27283496 1.202 460554
-0.6129055 0.27268228 1.202 722440
-0.64679044 0.27703238 1.202 197123
-0.6433562 0.27703238 1.202 197377
-0.63763237 0.27726135 1.202 459779
-0.63190854 0.27703238 1.202 329989
-0.6284743 0.27703238 1.202 527109
-0.61397398 0.27665079 1.202 657926
-0.65136951 0.28161144 1.202 65808
-0.64793521 0.28161144 1.202 131603
-0.6433562 0.28161144 1.202 198145
-0.63763237 0.28161144 1.2020001 656647
-0.63190854 0.28161144 1.202 460293
-0.62732953 0.28046665 1.202 461827
-0.62389523 0.28046665 1.202 462092
-0.61473715 0.28046665 1.202 461571
-0.66052765 0.28733522 1.202 262657
-0.65671176 0.28809839 1.202 66049
-0.64793527 0.28733522 1.2020001 393476
-0.6433562 0.28733525 1.2020001 328449
-0.63763237 0.28733522 1.202 526083
-0.63190854 0.28733528 1.2020001 592385
-0.65594858 0.29305905 1.202 66561
-0.65213275 0.29267746 1.202 65793
-0.64793521 0.29305905 1.202 262401
-0.6433562 0.29305905 1.202 131587
-0.63763237 0.29305905 1.2020001 263433
-0.66052765 0.29878286 1.202 65798
-0.65709335 0.29763809 1.202 66054
-0.65251434 0.29763809 1.202 65796
-0.64793521 0.29763809 1.202 196867
-0.6433562 0.29763809 1.202 262658
-0.63763237 0.29763809 1.2020001 328458
-0.63190854 0.29878286 1.202 591877
-0.6284743 0.29878286 1.202 724239
-0.66052765 0.30221713 1.202 65801
-0.65709335 0.30221713 1.202 65805
-0.65251434 0.30221713 1.202 65801
-0.64793521 0.30221713 1.202 393481
-0.6433562 0.30221713 1.202 328449
-0.63763237 0.30221713 1.202 459777
-0.63190854 0.30221713 1.202 722691
-0.62771118 0.30259871 1.202 854287
-0.65594858 0.30679619 1.202 66050
-0.65251434 0.30679619 1.202 65793
-0.64793521 0.30679619 1.202 131585
-0.6433562 0.30679619 1.202 197377
-0.6399219 0.30565146 1.202 328961
-0.63190854 0.30565146 1.202 657667
-0.626948 0.3064146 1.202 856086
-0.62389523 0.30794096 1.202 855305
-0.61702663 0.30679619 1.202 592391
-0.61397398 0.3064146 1.202 460804
-0.66167235 0.31252 1.202 131330
-0.6568644 0.31206211 1.202 262404
-0.65251434 0.31252003 1.2020001 65795
-0.64907998 0.31023046 1.202 66052
-0.64312726 0.31206211 1.202 197377
-0.63820475 0.31423715 1.202 263681
-0.63152695 0.31404635 1.202 592129
-0.62732953 0.31252003 1.2020001 788993
-0.61702663 0.31137523 1.202 460547
-0.61473715 0.31137523 1.202 329218
-0.66586983 0.31862539 1.202 131335
-0.66167235 0.3182438 1.202 65793
-0.65594858 0.3182438 1.202 131329
-0.63534284 0.31709906 1.202 591621
-0.63190854 0.31824383 1.202 723479
-0.62732953 0.31824383 1.202 921096
-0.66739619 0.32167807 1.202 197390
-0.65594858 0.32167807 1.202 196870
-0.65251434 0.32167807 1.202 196877
-0.64679044 0.32167807 1.202 393739
-0.64450097 0.32167807 1.202 393986
-0.63152701 0.32244128 1.202 464139
-0.62771118 0.32244128 1.202 594692
-0.62275052 0.32282287 1.202 593153
-0.65747494 0.32702035 1.202 327939
-0.63152701 0.32702035 1.202 332545
-0.6284743 0.32740191 1.202 593921
-0.62313211 0.32702035 1.202 855809
-0.66167235 0.33198094 1.202 131329
-0.65709335 0.33198094 1.202 65796
-0.65136951 0.33312571 1.202 65797
-0.63076383 0.33083621 1.202 592907
-0.6284743 0.33083621 1.202 593670
-0.62313211 0.33236253 1.202 527363
-0.66129082 0.33617842 1.202 131329
-0.65747494 0.33617842 1.202 65794
-0.65136951 0.33541524 1.202 65799
-0.62160575 0.33884954 1.202 591620
-0.61794245 0.33816269 1.202 722953
-0.61359239 0.33770478 1.202 328965
-0.66281712 0.34342855 1.202 131329
-0.62275052 0.34342858 1.202 266243
-0.61778986 0.34304699 1.202 526855
-0.6129055 0.34319961 1.202 394500
-0.66129082 0.34838924 1.202 262401
-0.62618476 0.34800762 1.202 724509
-0.62275052 0.34800762 1.202 658695
-0.61931616 0.34915239 1.202 68872
-0.61359239 0.34800762 1.202 1115913
-0.66510665 0.35373142 1.202 917762
-0.66167235 0.35258669 1.202 327937
-0.62618476 0.35258669 1.202 461574
-0.62389523 0.35144192 1.202 724226
-0.61931616 0.35373142 1.202 461317
-0.66510665 0.35716572 1.202 327938
-0.66167235 0.35716572 1.202 196865
-0.65594858 0.35716572 1.202 131333
-0.65289593 0.35754734 1.202 196872
-0.62618476 0.35716572 1.202 919821
-0.62389523 0.35716572 1.202 396551
-0.66510665 0.36288953 1.202 65798
-0.66167235 0.36174476 1.202 65793
-0.65594858 0.36059999 1.202 65793
-0.65365911 0.36059999 1.202 131329
-0.62618476 0.36059999 1.202 856068
-0.62275052 0.36174476 1.202 528385
-0.61855304 0.36136317 1.202 396805
-0.61473715 0.36059999 1.202 526085
-0.66567904 0.36804095 1.202 65803
-0.66281712 0.36517906 1.202 65795
-0.62618476 0.3697581 1.202 593157
-0.6229794 0.36701068 1.202 920321
-0.61817139 0.36517906 1.202 395521
-0.61473715 0.36517906 1.202 592129
-0.66625142 0.3720476 1.202 131338
-0.62618476 0.37319237 1.202 396548
-0.62389523 0.3720476 1.202 461827
-0.67312002 0.37777141 1.202 65795
-0.62618476 0.37777144 1.202 527363
-0.62389523 0.37777144 1.202 723202
-0.67655432 0.38349524 1.202 65793
-0.67312002 0.38235047 1.202 65795
-0.62732953 0.38235047 1.202 919565
-0.62389523 0.3823505 1.202 984582
-0.6773175 0.3873111 1.202 65793
-0.67312002 0.38692951 1.202 65793
-0.62732953 0.38578478 1.202 722964
-0.62275052 0.38692954 1.202 526857
-0.61931616 0.38807428 1.202 460815
-0.67655438 0.39265335 1.202 262406
-0.67312002 0.39265335 1.2020001 327942
-0.62618476 0.39265335 1.202 527631
-0.62275052 0.39265332 1.2020001 330500
-0.61874378 0.39208096 1.202 395272
-0.61473715 0.39036381 1.202 655879
-0.67769909 0.39723238 1.202 131345
-0.67426479 0.39837715 1.202 196876
-0.62732953 0.39837715 1.202 1051147
-0.67769909 0.40181142 1.202 65794
-0.67426479 0.40295619 1.202 65794
-0.63076383 0.40410095 1.202 594434
-0.62732953 0.40295619 1.202 658433
-0.63076383 0.40639049 1.202 658947
-0.62732953 0.40753525 1.202 330497
-0.62313211 0.40791687 1.202 264454
-0.67655432 0.41211426 1.202 131343
-0.62732953 0.41096953 1.202 329985
-0.62275052 0.41096953 1.202 394754
-0.61931616 0.41096953 1.202 657155
-0.62732953 0.4178381 1.202 396802
-0.62389523 0.41669333 1.202 264966
-0.61817139 0.4178381 1.202 395012
-0.67747015 0.42287502 1.202 327938
-0.67426479 0.4235619 1.202 131330
-0.62675714 0.42184478 1.202 592386
-0.62275052 0.42012763 1.202 330243
-0.67769903 0.42814094 1.202 131330
-0.67426479 0.42814094 1.202 66306
-0.62732953 0.42814094 1.202 591877
-0.62389523 0.42814094 1.202 460547
-0.61702663 0.42814094 1.202 263180
-0.61473715 0.42814094 1.202 197382
-0.67769909 0.43272001 1.202 65794
-0.67426479 0.43272001 1.202 65795
-0.62732953 0.43272001 1.202 526597
-0.62389523 0.43157527 1.202 198659
-0.61817139 0.43157527 1.202 133139
-0.61473715 0.43157527 1.202 131597
-0.67769909 0.43729904 1.202 65796
-0.62618476 0.43615428 1.202 919555
-0.62160575 0.44073334 1.202 656897
-0.626948 0.45370731 1.202 723201
-0.62389523 0.45332572 1.202 592131
-0.62618476 0.45904952 1.202 723969
-0.62389523 0.45790476 1.202 723714
-0.62618476 0.46362856 1.202 987137
-0.62389523 0.46362856 1.202 1247233
-0.62618476 0.46591812 1.202 724225
-0.62618476 0.47278666 1.202 332033
-0.62313211 0.47202349 1.202 68353
-0.62710059 0.47782364 1.202 527619
-0.62252158 0.47782364 1.202 330501
-0.61931616 0.47965524 1.202 329990
-0.63076383 0.4842343 1.202 660225
-0.62732953 0.48308954 1.202 659202
-0.62160575 0.48194477 1.202 658439
-0.61817139 0.48308954 1.202 329987
-0.63076383 0.48766857 1.202 528641
-0.62732953 0.48766857 1.202 462593
-0.62389523 0.48881334 1.202 199683
-0.61817139 0.48652381 1.202 132610
-0.62618476 0.49110287 1.202 265221
-0.63076383 0.49797142 1.202 396303
-0.63133615 0.5019781 1.202 461582
-0.62790191 0.5019781 1.202 199435
-0.62160575 0.50941908 1.202 262662
-0.61931616 0.50941908 1.202 262663
-0.62160575 0.51285332 1.202 460801
-0.61817139 0.51285332 1.202 393988
-0.62160575 0.51628762 1.202 460548
-0.61817139 0.51628762 1.202 328459
0.07465715 -0.070062861 1.2060001 66062
0.079251431 -0.070062861 1.2060001 197662
0.082697153 -0.070062861 1.2060001 263213
0.06776572 -0.065468572 1.2060001 65800
0.072360009 -0.066234291 1.2060001 131595
0.076954298 -0.06776572 1.2060001 131612
0.082314298 -0.067000002 1.2060001 197929
0.067000002 -0.061640006 1.2060001 65807
0.070828572 -0.062405717 1.2060001 131337
0.083080009 -0.062405717 1.2060001 132645
0.08614286 -0.060874287 1.2060001 329497
0.063171431 -0.056280006 1.2060001 65818
0.066617146 -0.057428576 1.2060001 65813
0.070062861 -0.057428576 1.2060001 65805
0.086908579 -0.057045721 1.2060001 329760
0.062405717 -0.052451432 1.2060001 66074
0.066617146 -0.052834287 1.2060001 66064
0.070062861 -0.053982858 1.2060001 66065
0.087291434 -0.052834287 1.2060001 198965
0.063171431 -0.048240006 1.2060001 66314
0.065468572 -0.048240006 1.2060001 66054
0.087291434 -0.049388576 1.2060001 198705
0.091885716 -0.047091432 1.2060001 134948
0.062022857 -0.042497143 1.2060002 65799
0.088440008 -0.044794288 1.2060001 69925
0.091885723 -0.042497143 1.2060001 134954
0.095331438 -0.040200002 1.2060001 199717
0.057428576 -0.036754288 1.2060001 65807
0.060874287 -0.036754288 1.2060001 66056
0.096097156 -0.036371432 1.2060001 198949
0.057045721 -0.032542862 1.2060001 65812
0.097628579 -0.032160003 1.2060001 264489
0.052834287 -0.027565716 1.2060001 66055
0.056280006 -0.027565716 1.2060001 66056
0.099925719 -0.026417146 1.2060001 264495
0.10222286 -0.026417146 1.2060001 264241
0.044794288 -0.021822859 1.2060001 65797
0.048240006 -0.022971429 1.2060001 66050
0.052834287 -0.024120001 1.2060001 66051
0.056280006 -0.024120001 1.2060001 66057
0.099925719 -0.022971429 1.2060001 264493
0.10222286 -0.021822859 1.2060001 460588
0.04307143 -0.017802859 1.2060001 65797
0.047091432 -0.018377144 1.2060001 65796
0.099925719 -0.018377144 1.2060001 197671
0.10222286 -0.018377144 1.2060001 263206
0.043262862 -0.013017144 1.2060002 65795
0.10452001 -0.012634288 1.2060001 132895
0.10681715 -0.010337144 1.2060001 133153
0.037902862 -0.0057428577 1.2060001 131626
0.042037714 -0.0071211434 1.2060002 131338
0.10758287 -0.0072742864 1.2060001 198951
0.036754288 -0.002297143 1.2060001 131344
0.10911429 -0.0034457145 1.2060001 789044
0.11141144 -0.002297143 1.2060001 329794
0.033308573 0.0034457145 1.2060001 65797
0.035605714 0.002297143 1.2060001 65797
0.11141144 0.002297143 1.2060001 134689
0.033308573 0.0068914294 1.2060001 65795
0.035605714 0.0068914294 1.2060001 65796
0.11141144 0.0068914294 1.2060001 134947
0.033308573 0.010337144 1.2060001 65794
0.036754288 0.011485715 1.2060001 65793
0.10911429 0.01493143 1.2060001 133411
0.11294287 0.012634288 1.2060001 133933
0.10452001 0.017228574 1.2060001 66056
0.10681715 0.017228574 1.2060001 66062
-0.60989147 0.15505715 1.2060001 198659
-0.60989147 0.17802858 1.2060001 460033
-0.63630861 0.19295999 1.2060001 197378
-0.63171434 0.19410858 1.2060001 460035
-0.62826866 0.19410858 1.2060001 591623
-0.64205146 0.19870287 1.2060001 131841
-0.63745719 0.19755429 1.2060002 67329
-0.63171434 0.19755429 1.2060001 984833
-0.62826866 0.19755429 1.2060001 1050369
-0.64320004 0.20214859 1.2060001 196865
-0.63745719 0.2021486 1.2060002 132353
-0.63209718 0.20176575 1.2060001 787713
-0.62826866 0.20100002 1.2060001 1050625
-0.64320004 0.20674287 1.2060001 67329
-0.63745719 0.20616859 1.2060001 197889
-0.65238863 0.21363431 1.2060001 131329
-0.64756465 0.21294515 1.2060002 197121
-0.64434862 0.21478288 1.2060001 263691
-0.6368829 0.21191145 1.2060001 263425
-0.65277147 0.21861145 1.2060001 131333
-0.64434862 0.21937716 1.2060001 131841
-0.63592577 0.21784572 1.2060001 919298
-0.65238863 0.22282286 1.2060001 65794
-0.64779437 0.22282287 1.2060001 131586
-0.64434862 0.22282287 1.2060001 131846
-0.63516003 0.22282287 1.2060001 1573388
-0.63286287 0.22397144 1.2060001 852999
-0.65583432 0.22856572 1.2060001 131334
-0.65238857 0.22741716 1.2060001 131330
-0.64779437 0.22741716 1.2060001 196866
-0.64320004 0.22741714 1.2060001 393732
-0.63745719 0.22741716 1.2060002 459273
-0.63286287 0.22856572 1.2060001 525831
-0.62826866 0.22741716 1.2060001 789766
-0.65200579 0.23239431 1.2060001 131329
-0.64779437 0.23201144 1.2060001 328193
-0.64320004 0.23201144 1.2060001 656130
-0.63745719 0.23201144 1.2060002 329219
-0.63209718 0.23239431 1.2060001 330244
-0.62826866 0.23201144 1.2060001 462086
-0.65238857 0.23660572 1.2060001 131329
-0.64779437 0.23660573 1.2060001 131329
-0.64320004 0.23660572 1.2060001 132097
-0.63745719 0.23660573 1.2060002 199169
-0.63171434 0.23660572 1.2060001 527109
-0.62826866 0.23545715 1.2060001 593418
-0.65215892 0.24280801 1.2060002 262401
-0.64802408 0.24188915 1.2060002 66050
-0.64358294 0.24081716 1.2060001 66563
-0.63669145 0.24158287 1.2060002 264193
-0.63171434 0.2423486 1.2060002 526343
-0.62826866 0.24005145 1.2060001 398101
-0.64817727 0.2484743 1.2060001 66311
-0.64434862 0.24924003 1.2060001 263181
-0.63516003 0.24694286 1.2060001 723202
-0.63171428 0.24809144 1.2060001 592387
-0.62826866 0.24809144 1.2060001 528132
-0.65583432 0.25383431 1.2060001 131330
-0.65238857 0.25268573 1.2060001 131340
-0.64779437 0.25268573 1.2060001 262665
-0.64320004 0.25268573 1.2060001 525070
-0.63803148 0.25211143 1.2060001 459783
-0.63286287 0.25153714 1.2060001 722695
-0.62826866 0.25383431 1.2060001 1312518
-0.66042864 0.25842857 1.2060001 65793
-0.65736574 0.25689715 1.2060001 65793
-0.65353715 0.25613144 1.2060001 131339
-0.63286287 0.25842857 1.2060001 396289
-0.62826866 0.25727999 1.2060001 593161
-0.66157722 0.26187432 1.2060001 65793
-0.65813142 0.26187432 1.2060001 65793
-0.63286287 0.26302287 1.2060001 461314
-0.62712002 0.26187432 1.2060001 789011
-0.66502291 0.26761717 1.2060001 131340
-0.66134751 0.26807663 1.2060002 65796
-0.65813148 0.26761717 1.2060001 65793
-0.63228858 0.26819146 1.2060001 722439
-0.62654573 0.26819146 1.2060001 723458
-0.62275547 0.26807663 1.2060002 461058
-0.61793149 0.26876575 1.2060001 591109
-0.61448574 0.26876575 1.2060001 525315
-0.66157717 0.27336001 1.2060001 65794
-0.65813142 0.27336001 1.2060001 65793
-0.6313315 0.27297717 1.2060001 788234
-0.62712002 0.27336001 1.2060001 854535
-0.62252575 0.27221143 1.2060001 1050887
-0.61908007 0.27336001 1.2060001 853256
-0.66502291 0.27910286 1.2060001 393474
-0.66157722 0.27795428 1.2060001 65794
-0.65698284 0.27795428 1.2060001 65796
-0.65238857 0.27795428 1.2060001 131333
-0.62712002 0.27795428 1.2060001 592906
-0.61908007 0.27795428 1.2060001 593160
-0.66578865 0.28293145 1.2060001 524545
-0.66157722 0.28254861 1.2060001 65793
-0.6569829 0.28254861 1.2060001 65797
-0.63056576 0.28369716 1.2060001 658178
-0.62712002 0.28369716 1.2060001 591876
-0.61793149 0.28254861 1.2060001 461571
-0.61333716 0.28369716 1.2060001 395265
-0.66686058 0.28737259 1.2060002 131334
-0.66157722 0.28599432 1.2060001 65793
-0.65660006 0.28676003 1.2060001 65794
-0.65353715 0.28714287 1.2060001 131333
-0.63056576 0.28714287 1.2060001 854273
-0.62712002 0.28714287 1.2060001 722947
-0.6167829 0.28714287 1.2060001 658433
-0.61333716 0.28714287 1.2060001 592129
-0.66686058 0.29196689 1.2060002 262408
-0.66157722 0.29173717 1.2060001 262401
-0.65583432 0.29058859 1.2060001 65793
-0.65353715 0.29058859 1.2060001 131329
-0.63516003 0.29288575 1.2060001 527874
-0.6313315 0.29212004 1.2060001 658689
-0.62712002 0.29173717 1.2060001 789763
-0.66666377 0.29715189 1.2060002 262411
-0.66196007 0.29594862 1.2060001 65794
-0.65583432 0.29518288 1.2060001 131586
-0.63516003 0.29633147 1.2060001 526088
-0.63171434 0.29633147 1.2060001 461577
-0.62826866 0.29748005 1.2060001 658460
-0.67191434 0.30322286 1.2060001 131330
-0.66617143 0.30322286 1.2060001 131331
-0.62673718 0.30283999 1.2060001 984844
-0.62252575 0.30322286 1.2060001 722691
-0.61793149 0.30322286 1.2060001 460548
-0.61448574 0.30322286 1.2060001 329217
-0.67191434 0.30781716 1.2060001 65794
-0.66617143 0.30781716 1.2060001 393474
-0.66157722 0.30781716 1.2060001 65795
-0.62597144 0.30666858 1.2060001 986385
-0.62214291 0.30743432 1.2060001 789251
-0.67191434 0.31241146 1.2060001 131331
-0.66655433 0.31202862 1.2060001 262401
-0.62597144 0.31241146 1.2060001 790017
-0.62214291 0.31279433 1.2060001 592385
-0.67191434 0.31815431 1.2060001 131334
-0.66846859 0.31700575 1.2060001 131332
-0.62597144 0.31700575 1.2060001 199937
-0.62252575 0.31700575 1.2060001 265729
-0.61793149 0.31585717 1.2060001 329477
-0.67191434 0.32160002 1.2060001 131594
-0.62597144 0.32045144 1.2060001 330753
-0.62367433 0.32045144 1.2060001 265473
-0.67191434 0.32734287 1.2060001 131335
-0.66808575 0.32734287 1.2060001 131336
-0.61793149 0.32964003 1.2060001 395011
-0.61448574 0.32964003 1.2060001 263681
-0.67191434 0.33193716 1.2060001 65804
-0.66732001 0.33193716 1.2060001 131329
-0.62252575 0.33308572 1.2060001 396553
-0.61793149 0.33308572 1.2060001 592147
-0.61333716 0.33193716 1.2060001 198145
-0.66502291 0.33882859 1.2060001 131329
-0.62252575 0.33653146 1.2060001 722952
-0.68110293 0.34342289 1.2060001 131349
-0.67880571 0.34342289 1.2060001 65796
-0.67306292 0.34342289 1.2060001 66049
-0.66732001 0.34227431 1.2060001 131329
-0.67191434 0.34686857 1.2060001 131585
-0.66777945 0.34709832 1.2060002 262401
-0.68110293 0.35261145 1.2060001 65798
-0.67650861 0.35146287 1.2060001 590081
-0.67306298 0.35261148 1.2060002 196865
-0.66808575 0.35222858 1.2060002 393731
-0.62597144 0.35490859 1.2060001 330757
-0.62290859 0.35337716 1.2060001 330753
-0.61793149 0.35376003 1.2060001 526085
-0.61333716 0.35376 1.2060001 262913
-0.68110293 0.35720575 1.2060001 66049
-0.67306292 0.3583543 1.2060001 196868
-0.66961718 0.35835433 1.2060001 262402
-0.62252575 0.35835433 1.2060001 396036
-0.61908007 0.35835433 1.2060001 460813
-0.68110293 0.36409718 1.2060001 66052
-0.67306292 0.3629486 1.2060001 131341
-0.66885149 0.36256576 1.2060001 65799
-0.61793149 0.36409718 1.2060001 329988
-0.68110293 0.36754289 1.2060001 65796
-0.67268008 0.36716005 1.2060001 65798
-0.66961718 0.36754289 1.2060001 65803
-0.62137717 0.36869147 1.2060001 264202
-0.61793149 0.36869147 1.2060001 657168
-0.68110293 0.37213716 1.2060001 66050
-0.67765719 0.37213716 1.2060001 327940
-0.67306292 0.37213716 1.2060001 196868
-0.62290859 0.37175429 1.2060001 264456
-0.61793149 0.37098858 1.2060001 394783
-0.68110293 0.37673146 1.2060001 65797
-0.67804003 0.37634858 1.2060001 131336
-0.67306292 0.37558287 1.2060001 131332
-0.62597144 0.37558287 1.2060001 527364
-0.62290859 0.3771143 1.2060001 328963
-0.68110293 0.3824743 1.2060001 131329
-0.67880571 0.38132572 1.2060001 65793
-0.62275547 0.38293374 1.2060002 656897
-0.68110293 0.3870686 1.2060001 65793
-0.62137717 0.3870686 1.2060001 592136
-0.61793149 0.3870686 1.2060001 1180938
-0.68110293 0.39281148 1.2060001 65793
-0.61793149 0.39396003 1.2060001 984065
-0.61448574 0.39396003 1.2060001 655617
-0.68110293 0.39625716 1.2060001 131335
-0.62597144 0.3985543 1.2060001 526347
-0.62252575 0.3985543 1.2060001 460299
-0.61793149 0.39740574 1.2060001 1049363
-0.61448574 0.39740574 1.2060001 721153
-0.62597144 0.40200001 1.2060001 526851
-0.62252575 0.40200001 1.2060001 591109
-0.61793149 0.40314859 1.2060001 327943
-0.62597144 0.40544572 1.2060001 330244
-0.62290859 0.40697718 1.2060001 525578
-0.61908007 0.40774289 1.2060001 459782
-0.62214291 0.41310292 1.2060001 656902
-0.61908007 0.41004002 1.2060001 328964
-0.62290859 0.41769719 1.2060001 460554
-0.61908007 0.41693148 1.2060001 459779
-0.62597144 0.48354861 1.2060001 920580
-0.62673718 0.48737717 1.2060001 332033
-0.62367433 0.48699433 1.2060001 266499
0.053184766 -0.12140001 1.2140001 659762
0.053570163 -0.11754604 1.2140001 528431
0.056653336 -0.11677525 1.2140001 790839
0.06281969 -0.11754604 1.2140001 594725
0.065902859 -0.11793144 1.2140001 595235
0.053184763 -0.11330668 1.2140001 396841
0.058194928 -0.11369208 1.2140001 528683
0.06243429 -0.11330667 1.2140001 398376
0.067059055 -0.11330667 1.2140001 398129
0.071683817 -0.11215048 1.2140001 1445682
0.075152382 -0.11330667 1.2140001 1051692
0.089026667 -0.11215048 1.2140001 266805
0.092495248 -0.11215048 1.2140001 333106
0.038154289 -0.10636953 1.2140001 65806
0.04046667 -0.10521334 1.2140001 65803
0.047981907 -0.10579143 1.2140001 66073
0.053184763 -0.10752573 1.2140002 198432
0.057809528 -0.10752572 1.2140002 199201
0.062434286 -0.10752572 1.2140002 462118
0.067059055 -0.10752573 1.2140002 462126
0.071683817 -0.10752572 1.2140002 1379886
0.076693974 -0.10675492 1.2140002 920352
0.083631121 -0.10598414 1.2140001 332594
0.088101715 -0.10706325 1.2140001 462909
0.092495248 -0.10752573 1.2140002 463927
0.095963821 -0.10752573 1.2140001 595260
0.038154289 -0.10058858 1.2140001 131329
0.041622862 -0.10058858 1.2140001 65799
0.047403812 -0.10174479 1.2140002 66324
0.053184766 -0.10174478 1.2140001 66569
0.057809528 -0.10174477 1.2140001 66309
0.06243429 -0.10174477 1.2140001 197909
0.067059055 -0.10174478 1.2140001 198442
0.071683817 -0.10174477 1.2140001 395574
0.077464774 -0.10174479 1.2140002 330540
0.083245724 -0.10174478 1.2140001 462383
0.087870479 -0.10174478 1.2140001 658491
0.092495248 -0.10174477 1.2140001 265270
0.095963813 -0.10174477 1.2140001 462905
0.038154289 -0.098276198 1.2140001 65793
0.041622858 -0.097120002 1.2140001 65796
0.047403812 -0.097120009 1.2140002 131858
0.053184763 -0.097120002 1.2140001 132106
0.057809524 -0.097120002 1.2140001 262669
0.062434293 -0.097120002 1.2140001 131858
0.067059055 -0.097120002 1.2140001 66329
0.071683817 -0.097120002 1.2140001 197660
0.077464767 -0.097120009 1.2140002 67111
0.083245724 -0.097120002 1.2140001 199213
0.08779905 -0.097040959 1.2130002 265271
0.092495248 -0.097120002 1.2140001 199223
0.095963813 -0.097120002 1.2140001 264765
0.038154289 -0.091339052 1.2140001 65795
0.041622862 -0.092495248 1.2140001 66050
0.047403812 -0.092495248 1.2140002 66314
0.053184766 -0.092495248 1.2140001 66580
0.057809524 -0.092495248 1.2140001 197404
0.062279053 -0.092265718 1.2110001 66068
0.066948578 -0.092344768 1.2120001 66067
0.072233528 -0.092083439 1.2116002 67090
0.077771053 -0.092544384 1.2116002 132135
0.082971431 -0.092190474 1.21 132392
0.087580957 -0.092190474 1.21 67602
0.092420012 -0.092418104 1.2130001 67363
0.096734606 -0.092880651 1.2140001 198188
0.037383497 -0.08748509 1.2140001 65796
0.041622862 -0.087870479 1.2140001 66050
0.047403812 -0.087870479 1.2140002 66314
0.053184766 -0.087870479 1.2140001 66317
0.057665717 -0.087654293 1.2110001 66057
0.062228575 -0.087580949 1.21 65802
0.066838093 -0.087580957 1.21 66066
0.072600007 -0.087580964 1.21 131863
0.078361906 -0.087580957 1.21 131887
0.082971431 -0.087580957 1.21 131883
0.087580957 -0.087580957 1.21 66852
0.092495248 -0.087870479 1.2140001 66595
0.095963813 -0.087870479 1.2140001 132640
0.036998101 -0.083245724 1.2140001 65800
0.041622862 -0.083245724 1.2140001 65798
0.047403812 -0.083245724 1.2140002 65809
0.05314 -0.083178103 1.2130002 66067
0.05761905 -0.082971431 1.21 65795
0.062228575 -0.082971431 1.21 66313
0.066838093 -0.082971431 1.21 66054
0.072600007 -0.082971439 1.21 66579
0.078361906 -0.082971431 1.21 131616
0.082971431 -0.082971431 1.21 132643
0.087580957 -0.082971431 1.21 67372
0.092495248 -0.083245724 1.2140001 132644
0.095963813 -0.083245724 1.2140001 132895
0.10058858 -0.082089528 1.2140001 66589
0.033529524 -0.079777151 1.2140001 65800
0.037229341 -0.077927239 1.2140001 65802
0.041622862 -0.077464774 1.2140002 65803
0.047403812 -0.077464767 1.2140001 196879
0.05309524 -0.078491434 1.2120001 131869
0.05761905 -0.078361906 1.21 65800
0.062228575 -0.078361906 1.21 66068
0.066838093 -0.078361906 1.21 66055
0.072600007 -0.078361914 1.21 131858
0.078361906 -0.078361906 1.21 66332
0.082971431 -0.078361906 1.21 263710
0.087580957 -0.078361906 1.21 198428
0.092666298 -0.077876203 1.2132001 133155
0.097120009 -0.077464774 1.2140002 198177
0.10058858 -0.077464774 1.2140001 66845
0.042008258 -0.072069213 1.2140001 65798
0.047403812 -0.071683824 1.2140002 65797
0.05309651 -0.07271874 1.2120001 65801
0.05761905 -0.072600007 1.21 65800
0.062228575 -0.072600007 1.21 65811
0.066838101 -0.072600007 1.21 65824
0.072311908 -0.072888091 1.21 65805
0.07813143 -0.073060952 1.21 131859
0.082971431 -0.073752381 1.21 328988
0.087580949 -0.072600007 1.21 394771
0.092021719 -0.072187059 1.2108001 68638
0.097040959 -0.071625724 1.2130002 264990
0.10135938 -0.07129842 1.2140001 328997
0.042779051 -0.068215244 1.2140001 131331
0.047403812 -0.067059055 1.2140002 65802
0.053140003 -0.06700477 1.2130002 65811
0.05761905 -0.066838093 1.21 65795
0.062228575 -0.066838093 1.21 65804
0.066453964 -0.067222223 1.21 65816
0.071447626 -0.067990474 1.21 66056
0.084123813 -0.065685712 1.21 198439
0.087580949 -0.066838093 1.21 132889
0.092190474 -0.066838093 1.21 133921
0.097120002 -0.067059055 1.2140001 329256
0.10174477 -0.067059055 1.2140001 656427
0.042779051 -0.061278097 1.2140001 65794
0.047866289 -0.062203057 1.2140001 65798
0.05309524 -0.062331431 1.2120001 65804
0.05761905 -0.062228575 1.21 65799
0.062228575 -0.062228575 1.21 65804
0.065685712 -0.063380957 1.21 66065
0.087965086 -0.062612705 1.21 198165
0.092190474 -0.062228575 1.21 67621
0.097120002 -0.06243429 1.2140001 132921
0.10174478 -0.062434293 1.2140001 66867
0.041622858 -0.057809528 1.2140001 65793
0.047403812 -0.057809532 1.2140002 65794
0.053052381 -0.05766762 1.2110001 131333
0.05761905 -0.05761905 1.21 65803
0.061844449 -0.05800318 1.21 65814
0.088733338 -0.058771431 1.21 264728
0.092190474 -0.05761905 1.21 133153
0.096961908 -0.057714287 1.2120001 67629
0.10174478 -0.057809528 1.2140001 67626
0.10598414 -0.057424128 1.2140001 67114
0.041622862 -0.053184766 1.2140001 65812
0.047403812 -0.053184763 1.2140002 131593
0.053009525 -0.053009525 1.21 65795
0.05761905 -0.053009525 1.21 65801
0.061076194 -0.054161906 1.21 65821
0.092190474 -0.053009525 1.21 199208
0.096961915 -0.053097144 1.2120001 198425
0.10174477 -0.053184763 1.2140001 67362
0.10636953 -0.053184766 1.2140001 66854
0.037576195 -0.046825718 1.2140001 65795
0.041622862 -0.047403812 1.2140002 66058
0.047114767 -0.047692861 1.2140001 197126
0.053009525 -0.0484 1.21 131849
0.05761905 -0.0484 1.21 66309
0.061076194 -0.0484 1.21 66318
0.092190474 -0.049552381 1.21 265768
0.096799999 -0.0484 1.21 330533
0.10166192 -0.048520956 1.2130001 132902
0.10752573 -0.047403812 1.2140001 198687
0.11307544 -0.046941336 1.2140001 134187
0.11677525 -0.045091432 1.2140001 68124
0.032373335 -0.04046667 1.2140001 66054
0.036998101 -0.041622862 1.2140001 65796
0.042706035 -0.041554924 1.2120001 65802
0.048630476 -0.042177144 1.21 65795
0.053009525 -0.042638101 1.21 65797
0.05761905 -0.042638101 1.21 66056
0.093342856 -0.04494286 1.21 69412
0.097030483 -0.043099049 1.21 133659
0.10152256 -0.04268381 1.2113335 199198
0.10752573 -0.041622862 1.2140002 329489
0.11330667 -0.041622862 1.2140001 329500
0.11677525 -0.04046667 1.2140001 328734
0.032758735 -0.036612704 1.2140001 65806
0.036998101 -0.036998101 1.2140001 66062
0.042682543 -0.03691683 1.2113335 131601
0.0484 -0.036876194 1.21 65794
0.053009525 -0.036876194 1.21 65799
0.097952388 -0.038028572 1.21 199432
0.1014943 -0.036907621 1.2110001 198434
0.10752573 -0.036998101 1.2140002 263727
0.11330668 -0.036998101 1.2140001 198184
0.032373335 -0.032373335 1.2140001 65810
0.036998101 -0.032373335 1.2140001 65800
0.042682543 -0.032302223 1.2113335 65799
0.0484 -0.032266669 1.21 66056
0.053009525 -0.032266669 1.21 66060
0.10256191 -0.032266669 1.21 329262
0.10868192 -0.032373335 1.2140001 264244
0.11330667 -0.032373335 1.2140001 133421
0.11677525 -0.032373335 1.2140001 67634
0.027748574 -0.026592383 1.2140001 65797
0.032373335 -0.027748574 1.2140001 65807
0.036998101 -0.027748574 1.2140001 65799
0.042638101 -0.027657142 1.21 65800
0.0484 -0.027657144 1.21 66063
0.1031381 -0.028233333 1.21 329259
0.10841429 -0.027680954 1.2110001 198688
0.11321428 -0.027726669 1.2130001 133672
0.11793144 -0.026592383 1.2140001 199202
0.027748574 -0.023123812 1.2140001 65795
0.032373335 -0.02312381 1.2140001 65816
0.03693524 -0.023085715 1.2120001 65809
0.042177144 -0.023278097 1.21 65800
0.047247618 -0.0242 1.21 65796
0.10409842 -0.023431746 1.21 461104
0.10832381 -0.023047619 1.21 264497
0.11330668 -0.023123812 1.2140001 199721
0.11677525 -0.023123812 1.2140001 199202
0.02428 -0.016186668 1.2140001 65793
0.027748574 -0.017342858 1.2140002 65796
0.032120001 -0.017793907 1.2132002 65802
0.036876194 -0.018438097 1.21 65806
0.041485716 -0.019590477 1.21 65802
0.10486667 -0.018438097 1.21 329252
0.10832381 -0.018438097 1.21 264485
0.11312191 -0.018468572 1.2120001 199723
0.11793145 -0.01734286 1.2140002 526886
0.12140001 -0.015030477 1.2140001 395583
0.02428 -0.012718096 1.2140001 65793
0.027748574 -0.011561906 1.2140001 65795
0.032538287 -0.012230477 1.2116002 65794
0.036876194 -0.012676192 1.21 65794
0.04110159 -0.011907937 1.21 65794
0.1085543 -0.013137144 1.21 133152
0.11293334 -0.012676192 1.21 133676
0.11773905 -0.011542858 1.2120001 68138
0.12140001 -0.012718096 1.2140001 133938
0.019655241 -0.005780953 1.2140001 65800
0.023509208 -0.0065517472 1.2140001 65797
0.027724763 -0.006932382 1.2130001 65794
0.032292381 -0.0069209528 1.2110001 65795
0.036492068 -0.0072984132 1.21 65810
0.10947619 -0.0057619051 1.21 461358
0.11293333 -0.0069142859 1.21 198958
0.11773905 -0.0069257151 1.2120001 67106
0.12217081 -0.0065517472 1.2140001 67852
0.12718096 -0.005780953 1.2140001 68116
0.023123812 -0.0023123811 1.2140001 131338
0.027700953 -0.0023085715 1.2120001 65795
0.032266669 -0.0023047621 1.21 65795
0.11408571 -0.0023047619 1.21 198709
0.11773905 -0.0023085715 1.2120001 198432
0.1225562 -0.0023123811 1.2140001 67596
0.12602477 -0.0034685717 1.2140001 68111
0.023123812 0.0023123811 1.2140001 131332
0.027679048 0.0023057144 1.2110001 65793
0.031882539 0.0019206349 1.21 65795
0.11408571 0.0023047619 1.21 199199
0.11773905 0.0023085717 1.2120001 133659
0.12255619 0.0023123811 1.2140001 67862
0.023123812 0.0069371439 1.2140001 65794
0.027700953 0.0069257147 1.2120001 65793
0.031114288 0.0069142859 1.21 65794
0.11408571 0.0069142859 1.21 199971
0.11773905 0.0069257151 1.2120001 67364
0.1221708 0.0073225414 1.2140001 67362
0.02428 0.011561906 1.2140001 65793
0.027724763 0.011553334 1.2130002 65796
0.031916827 0.011921905 1.2113335 65794
0.035723813 0.012676191 1.21 65793
0.11408571 0.014980952 1.21 132909
0.11739086 0.012222095 1.2108001 198439
0.12217081 0.011947303 1.2140001 132634
0.028904764 0.015030477 1.2140001 65796
0.032373335 0.015030477 1.2140001 65793
0.035841908 0.015030477 1.2140001 65793
0.10256191 0.017285716 1.21 65795
0.10850096 0.018470477 1.2120001 66066
0.11293334 0.017285716 1.21 66860
0.11831683 0.016572066 1.2140001 197925
0.12255619 0.015030477 1.2140001 197655
-0.63783181 0.12679558 1.2140001 197381
-0.63783181 0.13219112 1.2140001 459268
-0.63783181 0.13681589 1.2140001 590594
-0.63397783 0.13912827 1.2140001 263426
-0.65093529 0.14452383 1.2140001 524545
-0.64862293 0.14452383 1.2140001 196865
-0.637061 0.14336763 1.2140001 197633
-0.63289875 0.14359887 1.2140001 198146
-0.65093529 0.14799239 1.2140001 196865
-0.64862293 0.14799239 1.2140001 65793
-0.637061 0.14799239 1.2140001 263169
-0.63474864 0.14799239 1.2140001 263425
-0.61624956 0.14914858 1.2140001 461313
-0.61191428 0.14750478 1.21 395265
-0.60960954 0.14635238 1.21 459778
-0.64785212 0.15223175 1.2140001 66049
-0.64322734 0.15300256 1.2140001 66305
-0.637061 0.15146096 1.2140001 263169
-0.63474864 0.15146096 1.2140001 329473
-0.61292571 0.15236381 1.2120001 197889
-0.65324765 0.15839811 1.2140001 459011
-0.64746672 0.15724191 1.2140001 131585
-0.64284194 0.15724191 1.2140001 131845
-0.65633082 0.16225207 1.2140001 131329
-0.65247691 0.16225207 1.2140001 131329
-0.64785212 0.16148129 1.2140001 65793
-0.64310974 0.16199048 1.2132001 131593
-0.63937336 0.16302286 1.2140001 262663
-0.66095561 0.16918921 1.2140001 65803
-0.65671623 0.16764763 1.2140002 65795
-0.6520915 0.16764763 1.2140002 131330
-0.64769799 0.16718514 1.2140001 262405
-0.64303327 0.16789798 1.2134287 196867
-0.63937342 0.16764764 1.2140001 656131
-0.66712201 0.17458478 1.2140001 131329
-0.66134101 0.1734286 1.2140001 65795
-0.65671623 0.1734286 1.2140001 65794
-0.65155339 0.17328477 1.2130001 65793
-0.64755428 0.17314097 1.2120001 66049
-0.64360881 0.17296878 1.2124002 66305
-0.63943946 0.17362225 1.2126669 197889
-0.60960954 0.17400953 1.21 590849
-0.66134101 0.17805335 1.2140001 65796
-0.65671623 0.17805335 1.2140001 65796
-0.65104198 0.17804763 1.2113335 65794
-0.64755243 0.17776191 1.2120001 66049
-0.64346576 0.17790763 1.2130002 132097
-0.63848799 0.17770554 1.2132001 329218
-0.6601848 0.1826781 1.2140001 131330
-0.65671623 0.18267812 1.2140001 65797
-0.65247691 0.18306351 1.2140001 131331
-0.64746672 0.1826781 1.2140001 66049
-0.64322734 0.18306351 1.2140001 262661
-0.63803494 0.18169206 1.21 393988
-0.63390899 0.1826686 1.2124002 525827
-0.6601848 0.18730287 1.2140001 262401
-0.65633088 0.18691747 1.2140001 65796
-0.6520915 0.18730286 1.2140001 131330
-0.64746672 0.18730286 1.2140001 65794
-0.64399815 0.18730287 1.2140001 197134
-0.63814747 0.18657792 1.2108001 459535
-0.63324261 0.18758476 1.2133335 526341
-0.65671623 0.19192764 1.2140001 131331
-0.65155339 0.19177049 1.2130001 262407
-0.64746672 0.19192764 1.2140001 66307
-0.64399815 0.19192764 1.2140001 263174
-0.63841903 0.19014287 1.21 328461
-0.63228428 0.19153193 1.2115 460296
-0.62792957 0.19391811 1.2120001 527376
-0.66249728 0.1965524 1.2140002 65793
-0.65671623 0.1965524 1.2140001 262403
-0.6520915 0.1965524 1.2140001 590084
-0.64733905 0.19731466 1.2116002 131586
-0.64408958 0.19622667 1.2120001 197377
-0.62792957 0.19738096 1.2120001 724227
-0.66249722 0.20233333 1.2140001 131329
-0.65671623 0.20233338 1.2140002 131337
-0.65181279 0.20188636 1.2113335 196870
-0.64879054 0.20281905 1.21 196865
-0.63104451 0.20419621 1.2113335 788481
-0.62735337 0.20200001 1.2120001 920833
-0.66712201 0.2069581 1.2140001 131585
-0.66249722 0.2081143 1.2140001 131329
-0.65647304 0.20704445 1.21 131329
-0.65241569 0.20747088 1.2116002 131330
-0.64879054 0.20858096 1.21 66817
-0.64187622 0.20858096 1.21 132353
-0.63726664 0.20858096 1.21 394497
-0.63229531 0.20736137 1.2105716 787969
-0.66134101 0.21273907 1.2140001 65793
-0.65685713 0.2120381 1.21 131329
-0.65224767 0.21088572 1.21 131329
-0.63716382 0.21354288 1.2120001 263681
-0.63386631 0.21236841 1.2132001 395010
-0.66326803 0.21774922 1.2140001 131329
-0.65800953 0.21664762 1.21 131329
-0.63726664 0.21549524 1.21 592385
-0.63280624 0.21709478 1.2125001 527362
-0.62781149 0.21736383 1.2140001 528131
-0.66827822 0.22314477 1.2140001 65793
-0.66298556 0.22253373 1.2132001 65794
-0.65800953 0.22240953 1.21 65793
-0.6321196 0.22197819 1.2104446 461573
-0.62792957 0.22277525 1.2120001 527119
-0.67174673 0.22661334 1.2140001 196869
-0.66789281 0.22622797 1.2140001 65794
-0.66256195 0.22739241 1.2120001 131331
-0.65800953 0.22701906 1.21 131331
-0.63342541 0.22778732 1.21 657670
-0.62744349 0.22746782 1.2124001 1313551
-0.67637146 0.23470668 1.2140001 131585
-0.67348105 0.23297241 1.2140001 131334
-0.66943437 0.23470668 1.2140001 196884
-0.66296512 0.2326508 1.2113335 131332
-0.65724128 0.23239684 1.21 131330
-0.63265717 0.23162858 1.21 199685
-0.62790596 0.23254895 1.2124002 723459
-0.67637146 0.23701908 1.2140001 65793
-0.67290294 0.23817526 1.2140001 196866
-0.66943437 0.23817526 1.2140001 196872
-0.66261911 0.23739049 1.21 262402
-0.65800953 0.23739047 1.21 196865
-0.63023812 0.23893714 1.2120001 463371
-0.62789023 0.23752955 1.2126667 593668
-0.67290294 0.24280003 1.2140001 131586
-0.66712201 0.24280003 1.2140001 131329
-0.66201431 0.24219906 1.2110001 65793
-0.65724128 0.24161589 1.21 131329
-0.63089466 0.24318543 1.2140001 527891
-0.62781149 0.24280003 1.2140001 528133
-0.66712201 0.24742478 1.2140001 262401
-0.66146672 0.24660952 1.21 131329
-0.65724128 0.24699365 1.21 262401
-0.6534 0.24776189 1.21 197123
-0.63020003 0.24676892 1.2126669 1051657
-0.62704074 0.24781017 1.2140001 789507
-0.61740577 0.24858096 1.2140001 591618
-0.66712201 0.25089335 1.2140001 131331
-0.6619606 0.25237146 1.21 65793
-0.65724128 0.25083494 1.21 196867
-0.6534 0.25006667 1.21 131592
-0.63133526 0.25241908 1.2130002 658437
-0.62677336 0.25278479 1.2120001 1182724
-0.66712201 0.25667432 1.2140001 65794
-0.66377145 0.25813335 1.21 65793
-0.62662727 0.2573429 1.2117144 789511
-0.67174673 0.26476762 1.2140001 393474
-0.6683315 0.26317525 1.2120001 131330
-0.62559658 0.26257029 1.2124002 657690
-0.67251754 0.26862162 1.2140001 196875
-0.66722858 0.26620001 1.21 196867
-0.66492385 0.26620001 1.21 65794
-0.6224997 0.26678669 1.2126669 657154
-0.61856192 0.26708001 1.2140001 656387
-0.67251754 0.27324638 1.2140001 524566
-0.66722858 0.27196193 1.21 327952
-0.67174673 0.27748573 1.2140001 459016
-0.66722858 0.27657145 1.21 262401
-0.62574285 0.27657145 1.21 789264
-0.62343812 0.27657145 1.21 854540
-0.67752767 0.28326669 1.2140001 65795
-0.67294669 0.28337428 1.2120001 393478
-0.66953331 0.28233334 1.21 1114374
-0.62574285 0.28233334 1.21 395797
-0.62266988 0.28233334 1.21 396299
-0.68099624 0.2867353 1.2140001 65794
-0.67796129 0.28725654 1.2113335 65793
-0.67337465 0.28771114 1.21 65799
-0.62562096 0.28741527 1.2120001 329735
-0.62113333 0.28809524 1.21 396802
0.16533525 0.28557909 1.2140001 262923
-0.68215239 0.29367238 1.2140001 65793
-0.67870092 0.29227525 1.2130001 65794
-0.67337465 0.29232067 1.21 131339
-0.62566161 0.29187113 1.2113335 527109
-0.62228572 0.29270476 1.21 593160
-0.61767626 0.29270476 1.21 723203
-0.61421901 0.29270476 1.21 919041
-0.68099624 0.29714096 1.2140001 65800
-0.67868382 0.29714096 1.2140001 131330
-0.67337465 0.29769844 1.21 131354
-0.626616 0.29727963 1.2108001 1116681
-0.62258607 0.29802477 1.2113335 1051140
-0.61806035 0.29769844 1.21 460548
0.16071048 0.29945335 1.2140001 65800
0.16610605 0.29868257 1.2140001 196871
-0.68562096 0.3040781 1.2140001 459009
-0.67260641 0.30153969 1.21 65804
-0.62689525 0.30077142 1.21 657929
-0.62228572 0.30077142 1.21 461315
-0.61767626 0.30077142 1.21 198147
0.15762731 0.30330732 1.2140001 65794
0.16071048 0.30292192 1.2140001 65794
0.16610605 0.30253655 1.2140001 262413
-0.68562096 0.30639049 1.2140001 721153
-0.68253779 0.30793208 1.2140001 196865
-0.67760003 0.30768573 1.21 65794
-0.67183816 0.30768573 1.21 262402
-0.62574285 0.3099905 1.21 790017
0.15377335 0.30754668 1.2140001 65793
0.15724191 0.30754668 1.2140001 65793
0.16071048 0.30754668 1.2140001 131329
-0.68562096 0.31217146 1.2140001 131333
-0.6833086 0.31217146 1.2140001 65793
-0.67721593 0.3130635 1.21 65796
-0.6718381 0.31344762 1.21 196865
