# .PCD v0.7 - Point Cloud Data file format
VERSION 0.7
FIELDS x y z rgba
SIZE 4 4 4 4
TYPE F F F U
COUNT 1 1 1 1
WIDTH 1191
HEIGHT 1
VIEWPOINT 0 0 0 1 0 0 0
POINTS 1191
DATA ascii
-0.60617954 0.32753548 1.3874998 459014
-0.59657776 0.32905304 1.3899999 1576462
-0.6040687 0.35124797 1.3876522 393988
-0.59866202 0.35051787 1.3904618 919819
-0.6033324 0.36432099 1.3850002 394247
-0.59736615 0.36581376 1.3866669 788745
-0.59620965 0.41550002 1.3850001 1775374
0.1562894 -0.53284371 1.4164287 66052
0.16769965 -0.53378397 1.4171251 131841
0.18739811 -0.53561628 1.419 657166
-0.58516854 -0.50138003 1.419 4994067
-0.57596576 -0.5046429 1.4130001 5914386
-0.5800029 -0.49926001 1.4130001 5125388
-0.57515049 -0.49854955 1.4110001 5716751
-0.63742387 -0.2022638 1.419 656387
-0.64378756 -0.19107145 1.4166924 789259
-0.63832474 -0.19415525 1.419 459523
-0.64385927 -0.16583961 1.419 1181956
-0.63706344 -0.16406344 1.419 328967
-0.6448462 -0.14881095 1.4172502 986121
-0.6359818 -0.15095486 1.4187601 328963
-0.64512181 -0.12995818 1.4187275 1117969
-0.63299656 -0.12831268 1.4182171 591622
-0.64463145 -0.10946574 1.4190001 1380627
-0.63206065 -0.10932841 1.41886 657416
-0.64484239 -0.090166681 1.4165001 1644049
-0.63345397 -0.089775689 1.4183511 789764
-0.64424044 -0.072094016 1.418143 2103573
-0.62961644 -0.070099734 1.4185233 1250056
-0.61557573 -0.066895716 1.419 2041604
-0.64513695 -0.049559601 1.4172859 1711629
-0.62983698 -0.049690425 1.4177794 1447684
-0.61161798 -0.051354285 1.419 1709060
-0.64570946 -0.032387059 1.4130001 1250568
-0.62960726 -0.02924809 1.4126318 1710346
-0.61026651 -0.03146898 1.419 2367249
-0.644068 -0.0035022858 1.4142002 1580057
-0.63022012 -0.01004607 1.4133439 1711376
-0.6121971 -0.012589625 1.4190001 1774354
-0.59868288 -0.0013514286 1.419 6251364
-0.64421064 0.0091406209 1.4124502 1711373
-0.63161033 0.009588914 1.4145603 1777424
-0.60138571 0.0013514286 1.419 6311499
-0.59868288 0.0027028571 1.419 6251621
-0.64491999 0.03605143 1.4020002 657672
-0.62876076 0.02948097 1.4095653 1909008
-0.62783974 0.050123226 1.4076231 2236431
-0.61150604 0.050945573 1.4175788 1775117
-0.62841821 0.069413289 1.4064522 1843472
-0.61161864 0.070898421 1.4174443 1381906
-0.59868288 0.079734288 1.419 6117964
-0.62902379 0.089738004 1.408224 1907980
-0.6102525 0.090460412 1.4184439 1776667
-0.59868288 0.08919429 1.419 5921364
-0.62582004 0.10945319 1.4071254 1909007
-0.61125177 0.10989118 1.4173015 1512979
-0.62288934 0.13045508 1.405893 1842187
-0.61046016 0.12970559 1.4163748 1514007
-0.64491999 0.15088192 1.4020001 459778
-0.62376553 0.14924105 1.4058162 1644818
-0.61261636 0.15105101 1.4148295 1183757
-0.62126726 0.16881225 1.4020002 1709329
-0.61068326 0.16980095 1.4114124 1183501
-0.62132287 0.18525667 1.4045 1576209
-0.61138713 0.19005935 1.4090985 985610
-0.59884286 0.18167144 1.4130001 3944214
-0.60947365 0.20968792 1.408873 919299
-0.59856617 0.21146023 1.4052501 2696457
-0.60927445 0.23037891 1.4104578 1051147
-0.5989114 0.23095718 1.4100002 2958626
-0.60634154 0.24638571 1.4028827 722180
-0.59818673 0.24879937 1.4020002 2170892
-0.59818673 0.27105334 1.4020001 1973006
-0.60352767 0.30042857 1.4020001 984325
-0.5977416 0.30131876 1.4020002 2561560
0.13000938 -0.54131144 1.4327143 1644057
0.14310001 -0.54105437 1.4310001 65793
0.1955286 -0.54211152 1.4290001 1116686
0.20785268 -0.54332501 1.4344287 1446929
0.13389844 -0.53195941 1.435138 525061
0.14915764 -0.52929354 1.431 65795
0.17034724 -0.52750868 1.4305099 131588
0.18999758 -0.52938592 1.4312308 722701
0.20283349 -0.53333187 1.4348572 1183493
-0.60080284 -0.50500286 1.437 2890012
-0.59806567 -0.50500286 1.437 4599067
0.13001429 -0.51595151 1.437 1707529
0.15081657 -0.51868862 1.4370002 262657
0.17137715 -0.51674879 1.4364548 262657
0.18731451 -0.51797563 1.4356154 393735
-0.60561937 -0.42660108 1.4362501 3418379
-0.64459711 -0.40701315 1.4370002 657922
-0.60871017 -0.40889874 1.4370002 1709321
-0.64277244 -0.3635838 1.437 132611
-0.63414621 -0.36640391 1.4370003 1313556
-0.64404976 -0.3520878 1.4370003 263169
-0.63483471 -0.3486208 1.4370003 854797
-0.60463488 -0.34460631 1.4370002 4666643
-0.64700943 -0.3275272 1.4365201 394500
-0.63244551 -0.32874435 1.436442 985863
-0.60866636 -0.32875445 1.4357145 2695177
-0.59654814 -0.33096811 1.4350002 5716249
-0.64794582 -0.3113811 1.4365557 394756
-0.63014853 -0.30986747 1.4325848 723974
-0.61366755 -0.31149498 1.4358002 1577995
-0.64498383 -0.28943953 1.4348183 262914
-0.6308493 -0.29050624 1.4351604 920581
-0.61564982 -0.2898469 1.4370002 1643020
-0.64473152 -0.26717606 1.4341304 459777
-0.63034427 -0.26922175 1.4352 986120
-0.61441463 -0.26957741 1.4368287 1906444
-0.64544863 -0.24893029 1.4306999 395016
-0.63061345 -0.24981667 1.4318135 789000
-0.61438829 -0.2498527 1.4335715 1776136
-0.64659137 -0.2305745 1.4343104 461060
-0.63130426 -0.2305306 1.4361572 986117
-0.6130994 -0.22901134 1.4356365 2564109
-0.64672464 -0.21116157 1.4333076 656645
-0.62900823 -0.20914622 1.4283873 855045
-0.61139649 -0.20884617 1.4344667 2826776
-0.64488965 -0.1837078 1.4250002 1115910
-0.63073879 -0.18954463 1.4305238 854792
-0.61046296 -0.18940052 1.435235 3024664
-0.64526314 -0.17506967 1.430077 722435
-0.6303795 -0.17000274 1.4321997 986634
-0.61172301 -0.16998146 1.4363328 2826262
-0.59850001 -0.16150001 1.4250001 5651010
-0.65549999 -0.14385715 1.4250001 723969
-0.62803292 -0.14956068 1.4316121 987402
-0.61190468 -0.14887665 1.4341429 2497290
-0.62456566 -0.13118553 1.4283748 1708815
-0.6115905 -0.12997845 1.436625 2958609
-0.62355268 -0.11047925 1.4294443 2038796
-0.61603326 -0.1118049 1.4365201 1578756
-0.65553433 -0.098125719 1.4310001 1182997
-0.62440604 -0.090274915 1.4266663 1513997
-0.61275756 -0.090465046 1.4326744 2037775
-0.62019533 -0.071982868 1.4260001 2237706
-0.61291999 -0.069286175 1.4308419 1907466
-0.62021434 -0.048857145 1.4250001 2759437
-0.61254084 -0.050139625 1.4277998 2039054
-0.62115151 -0.033501044 1.4277273 2302473
-0.61389464 -0.030192124 1.4309999 1711381
-0.62256211 -0.0030550002 1.4265001 1776395
-0.61296737 -0.0042730612 1.428 1315606
-0.62288147 0.0086439997 1.4276397 1581076
-0.6120286 0.01013032 1.4298332 1908000
-0.62221718 0.027683571 1.4268749 1975042
-0.61184061 0.03038701 1.4269087 1841690
-0.60953814 0.048042864 1.425 2565146
0.20538537 0.054883577 1.4317499 2434619
-0.6057381 0.067404769 1.4250001 4342856
0.19352205 0.072444491 1.4352858 8488071
0.20555945 0.06487029 1.4370002 8751483
-0.60528576 0.11128572 1.4250001 4804429
-0.60528576 0.13164286 1.4250001 4542530
-0.6088143 0.14765716 1.4250001 1843243
-0.64574289 -0.54181433 1.455 131851
0.12506001 -0.54009432 1.4430001 5199411
0.21608929 -0.54383862 1.4475 985368
0.2282843 -0.54807574 1.4505001 6049883
-0.64712858 -0.53765714 1.455 329226
0.13035344 -0.52873594 1.4469 2560527
0.14617622 -0.52265525 1.4480002 66055
0.19927144 -0.52085429 1.4430001 595470
0.20781572 -0.52881944 1.4460002 2367767
-0.64481908 -0.5011667 1.4550002 921111
-0.63881427 -0.50024283 1.455 789785
-0.61205614 -0.50363606 1.4520001 1840660
0.13647857 -0.51661646 1.4475001 1969153
0.15102409 -0.51570427 1.4500718 1969926
0.16948597 -0.50958788 1.4468924 3417112
0.18952775 -0.51094484 1.4471866 2759955
0.20259979 -0.51322973 1.447154 5261132
-0.64818835 -0.48907548 1.4550008 1184269
-0.63576573 -0.48777142 1.455 854792
-0.61270827 -0.49055099 1.4544286 2299406
-0.64877659 -0.46917164 1.4535661 1118225
-0.63126415 -0.47033477 1.4542691 526600
-0.61212838 -0.46920499 1.4494742 2627349
-0.64652282 -0.44953433 1.4543333 1052430
-0.6302942 -0.45012271 1.4511826 657928
-0.61609286 -0.44983301 1.4510628 1905164
-0.64714521 -0.43006134 1.4463602 855820
-0.62990189 -0.42958975 1.4443754 723468
-0.6169365 -0.42903325 1.44675 856333
-0.64453995 -0.41262925 1.4430002 920584
-0.63079703 -0.41091147 1.4430004 920330
-0.61571795 -0.4104948 1.4434804 1052684
-0.64465827 -0.39080262 1.4441431 659460
-0.63017875 -0.39063194 1.4439005 790537
-0.61672801 -0.39221722 1.4501255 1447944
-0.64761972 -0.37081045 1.4442501 395012
-0.62938499 -0.37045842 1.4431468 855057
-0.61496037 -0.36930326 1.4457276 1710094
-0.66098577 -0.34504285 1.455 789514
-0.6519146 -0.34874967 1.4452502 525573
-0.62671936 -0.35131085 1.4432226 1511695
-0.6137712 -0.35021383 1.4430004 1775115
-0.66102004 -0.33534002 1.4490001 1576215
-0.65333551 -0.33532575 1.443 1049863
-0.62529999 -0.33532578 1.4430001 2100740
-0.61862499 -0.3359147 1.4430001 1118210
-0.65072429 -0.28447714 1.4430001 393731
-0.65003717 -0.27898002 1.4430002 983554
-0.65141147 -0.22126001 1.4430001 788231
-0.65416002 -0.20476858 1.4430001 853519
-0.60468578 -0.17728285 1.4430001 5589313
-0.60743427 -0.12231143 1.4430001 5527609
-0.61008734 -0.10993594 1.4455718 4603447
0.17667857 0.055775002 1.455 65793
0.18997508 0.054466829 1.4520006 131330
0.20106001 0.055077143 1.4460001 1507851
0.17764857 0.064574286 1.455 788744
0.19011196 0.06634406 1.4503553 4867904
0.20202002 0.065507621 1.4430002 7434588
-0.66074574 -0.55132288 1.473 593159
-0.64851087 -0.54857546 1.4634446 591116
-0.63121378 -0.54755235 1.4665607 656903
-0.61616474 -0.54634362 1.4625003 1381647
0.12485428 -0.54010004 1.473 4950174
0.21718954 -0.54274386 1.4650002 2625827
0.22701664 -0.54554945 1.4677058 7633782
-0.66084862 -0.52532578 1.4670001 921349
-0.64867783 -0.52866787 1.4626665 788998
-0.63091576 -0.53048295 1.4662802 657156
-0.61330712 -0.5288263 1.4621433 2430483
-0.6614235 -0.51344293 1.4658002 1052421
-0.65004265 -0.51122177 1.4623547 1050889
-0.63065255 -0.51009518 1.4611458 526599
-0.61584634 -0.51649833 1.4610003 1184269
0.15444858 -0.51204568 1.4610002 7561505
0.16140573 -0.50926286 1.4610001 8156469
-0.66092861 -0.49674001 1.4610001 1445401
-0.65131515 -0.49193329 1.4610003 1249032
-0.62999386 -0.49117452 1.4609994 526603
-0.61640286 -0.48978287 1.4610002 1971984
-0.66092861 -0.46056288 1.4610001 1183494
-0.65258002 -0.46056288 1.4610002 1182728
-0.66092861 -0.45778003 1.4610001 1184003
-0.65258014 -0.45323953 1.4610003 1182982
-0.61640292 -0.38542572 1.4610002 3091464
-0.61501145 -0.37986001 1.4610001 4602383
-0.61501145 -0.10714 1.4610001 5791058
0.17218931 0.055657141 1.4610002 197122
0.17532 0.066092856 1.4610001 1647643
0.18544 0.07250572 1.4640001 7833699
0.12685715 -0.54548573 1.48 5926755
0.22612791 -0.54548573 1.4800001 9277073
-0.66894859 -0.38203713 1.6110001 5716769
-0.67538667 -0.58201528 1.6340001 4861724
-0.67694288 -0.57579052 1.6340001 4862233
-0.68628007 -0.46374476 1.6340001 5650959
-0.68398672 -0.44973901 1.6340004 5453849
-0.67694294 -0.44558924 1.6340002 5717299
-0.68161142 -0.42950857 1.6340002 5519904
-0.67694294 -0.43417716 1.6340002 5715746
-0.68342704 -0.40901875 1.6340002 5518870
-0.68227839 -0.39727321 1.6340001 5521171
-0.67517716 -0.38869143 1.626 5650718
-0.68005526 -0.36881715 1.6340001 5651480
-0.67694288 -0.36881715 1.6340001 5978398
-0.68482095 -0.34829491 1.6301906 4469268
-0.68749058 -0.3311775 1.6313334 3943190
-0.68482542 -0.31047362 1.6317781 4667684
-0.67827433 -0.30352002 1.626 5061423
-0.68506736 -0.28901842 1.6286664 4666640
-0.67716819 -0.29489225 1.6260002 5588523
-0.68679875 -0.27025843 1.6340001 5063442
-0.68347889 -0.25614899 1.6340001 5785652
-0.68628007 -0.22253524 1.6340001 5064240
-0.68962765 -0.62176955 1.6570001 4926234
-0.68686599 -0.61111748 1.6569998 4926244
-0.68540359 -0.59181565 1.656111 5057564
-0.68804955 -0.57127059 1.6569998 4925217
-0.68737328 -0.54669732 1.6569999 5321766
-0.68388081 -0.5293752 1.6526666 5452837
-0.68814987 -0.51205486 1.6546773 5125920
-0.6849066 -0.49079987 1.6474762 5651483
-0.67984289 -0.49542573 1.641 5652521
-0.68506634 -0.47048816 1.6457272 5652513
-0.67984289 -0.46260571 1.641 5652781
-0.68104804 -0.45699844 1.649 5981496
-0.67740101 -0.45035544 1.6442 5981503
-0.68481433 -0.42190477 1.6530001 5454909
-0.67543942 -0.4319306 1.6414709 6178875
-0.68349308 -0.41211882 1.6470001 5715760
-0.67984289 -0.40478 1.6410002 5781264
-0.67984289 -0.39696571 1.641 5781019
-0.6849308 -0.36573765 1.6470002 5850654
-0.68300629 -0.34885088 1.6426001 5653022
-0.67984289 -0.34851715 1.6410002 5918235
-0.68525326 -0.32808858 1.6459233 5717560
-0.67984289 -0.33601427 1.6410002 6573620
-0.68296856 -0.31726003 1.641 5717570
-0.69023573 -0.28346714 1.6489999 5389610
-0.68609428 -0.27740714 1.641 5653539
-0.68862832 -0.24915215 1.648 5982780
-0.694888 -0.22882383 1.6570001 5720639
-0.68457562 -0.62545103 1.6650004 5254945
-0.6771 -0.62477148 1.6650001 5518380
-0.68587685 -0.61085677 1.6674832 5190432
-0.67714447 -0.61775661 1.6703336 5650198
-0.68531722 -0.58717948 1.6695716 5452307
-0.68523252 -0.56932729 1.6672226 5386280
-0.68451637 -0.55190533 1.666482 5453354
-0.6771 -0.54072857 1.6650001 6576720
-0.68108672 -0.52867138 1.6670001 5717566
-0.6771 -0.53280002 1.6650001 6511437
-0.68319142 -0.51192456 1.6679094 5980211
-0.68560278 -0.48910785 1.6683338 6372898
-0.68524146 -0.47152385 1.6700912 6310462
-0.68185717 -0.45034289 1.6650001 6312265
-0.68991345 -0.42542005 1.6730001 5716292
-0.68610448 -0.40944064 1.6663334 6179662
-0.68991339 -0.39674002 1.6730001 6109251
-0.68984956 -0.36877334 1.6690001 6179893
-0.68978572 -0.35995716 1.6650001 5983782
-0.69469333 -0.32663333 1.6730001 5982030
-0.68978572 -0.30604285 1.6650001 6383196
-0.70266002 -0.27086669 1.6730001 5258511
-0.69415355 -0.24610226 1.6671821 6249293
-0.69533557 -0.23043351 1.6686366 6576729
-0.69302857 -0.21776477 1.6690001 6448986
-0.7143445 0.54757559 1.6730001 4931897
-0.68054605 -0.63028008 1.6840003 6047536
-0.67640239 -0.62917435 1.6810001 6577967
-0.68277538 -0.6110723 1.6891429 6377791
-0.68807298 -0.58955568 1.692 6113579
-0.68507451 -0.56751531 1.6862001 6378538
-0.68460709 -0.55521017 1.6898001 7296848
-0.69375432 -0.48837715 1.6980001 6508358
-0.69213712 -0.47058856 1.6980001 6972754
-0.69375432 -0.44309714 1.6980001 7497819
-0.69176298 -0.42788061 1.6936668 6841432
-0.69285661 -0.41256708 1.6914444 6579044
-0.69698858 -0.38002861 1.6980001 6583156
-0.70022285 -0.36062288 1.6980001 6247744
-0.69698858 -0.37679428 1.6980001 6581625
-0.70022285 -0.35415432 1.6980002 5720384
-0.69570827 -0.34814638 1.6896667 7233877
-0.70022291 -0.32828003 1.6980002 7104091
-0.69658422 -0.33520192 1.6840003 6643783
-0.70085377 -0.3124705 1.6964 6973280
-0.69641435 -0.31698859 1.6810001 6249820
-0.70166099 -0.28678533 1.6898001 6315347
-0.69961625 -0.28657049 1.6810001 5914181
-0.70239782 -0.27518243 1.6933638 6773076
-0.69961625 -0.27536383 1.6810001 6374980
-0.70020956 -0.24884824 1.6966667 6973293
-0.69641435 -0.24494573 1.6810001 6774897
-0.70016289 -0.22720382 1.692 6645597
-0.69641435 -0.23534001 1.6810001 6776943
-0.70518541 -0.20883796 1.695091 6710625
-0.70946431 -0.1879438 1.694 6116952
-0.71030629 -0.16941951 1.6980001 6184021
-0.70669156 -0.15219112 1.6980001 6577772
-0.70992577 -0.12937143 1.6980001 6708840
-0.71356434 -0.10471001 1.6980001 6053474
-0.7120077 -0.090824388 1.6968002 6446952
-0.71308959 -0.079053335 1.694 6383206
-0.71285456 -0.046878442 1.6972728 6446949
-0.7228629 -0.022640001 1.6980001 3164216
-0.71184814 -0.028492929 1.6957147 6249827
-0.71237725 -0.012183849 1.69248 5789534
-0.7141912 0.030672381 1.6953332 6184030
-0.71410215 0.049768385 1.6964 6117729
-0.71639436 0.07277143 1.6980001 6185297
-0.71316004 0.098645717 1.6980001 5788756
-0.7131601 0.1120449 1.6980002 5854550
-0.71477717 0.15686287 1.6980001 5590854
-0.71404272 0.1725852 1.6971111 5129277
-0.7228629 0.19567429 1.6980001 2964010
-0.71637356 0.18930148 1.6969335 4339764
-0.71639431 0.21831429 1.6980001 3681314
-0.7228629 0.2264 1.6980001 2894613
-0.71851242 0.23064828 1.6962223 3549728
-0.7228629 0.24095429 1.6980001 2764049
-0.71959436 0.24525218 1.6964 3157009
-0.71962863 0.33232287 1.6980001 3351314
-0.71962863 0.34768572 1.6980001 3154962
-0.71962863 0.37194288 1.6980001 3941392
-0.71865839 0.39070174 1.6980002 3088931
-0.72609717 0.41560572 1.6980001 2366738
-0.71631867 0.41167322 1.6928698 2957849
-0.7228629 0.43501145 1.6980001 3349027
-0.71639991 0.42708835 1.6929445 3088159
-0.72367144 0.45118287 1.6980001 2628893
-0.71731848 0.45048985 1.6980002 3219992
-0.72480345 0.46347317 1.6980002 2694930
-0.71849346 0.46919757 1.6953335 3024410
-0.72278291 0.48946041 1.6945714 3550767
-0.71821809 0.49220031 1.6968572 3813674
-0.7228629 0.51069373 1.6980002 4470575
-0.71442068 0.51032174 1.6947275 4799799
-0.7228629 0.53042293 1.6980002 4996682
-0.71442872 0.5304721 1.6967204 4670025
-0.7228629 0.54335999 1.6980001 4998465
-0.71590561 0.55061162 1.6928422 4998712
-0.7228629 0.57246864 1.6980001 5128505
-0.7151258 0.56990165 1.6960955 4933445
-0.72437823 0.59090126 1.69525 4274736
-0.71553099 0.5902828 1.6940002 4801096
-0.72241759 0.60903543 1.6864001 3028250
-0.71781087 0.60998487 1.689917 4209964
-0.72322053 0.63115954 1.6960001 3486241
-0.71962863 0.62745142 1.6980001 4208690
-0.72415662 0.64459318 1.6980002 3221520
-0.72447997 0.68890285 1.6980001 2629139
-0.71962869 0.68512958 1.6980002 3086618
-0.72498792 0.71205342 1.6966667 2235919
-0.72365874 0.72952956 1.694364 2430995
-0.71821809 0.73530477 1.6968572 2890017
-0.7228629 0.75197148 1.6980002 2628871
-0.71815854 0.74991333 1.6980002 2956314
0.79401714 0.75520575 1.6980001 2564108
-0.72448003 0.76490867 1.6980002 2236185
-0.71962869 0.76490867 1.6980002 2888211
0.79563427 0.76490867 1.6980002 1909005
0.80048573 0.76652575 1.6980001 1711113
-0.68402475 -0.6255334 1.7060001 6842719
-0.68619108 -0.6114521 1.7060001 6974817
-0.69282138 -0.59408104 1.709 6443578
-0.69074136 -0.56874645 1.711143 7234650
-0.69416666 -0.55370003 1.715 7955807
-0.69743329 -0.52919996 1.715 6579307
-0.70069999 -0.51123333 1.715 6568769
-0.69684941 -0.50487417 1.7124287 6774369
-0.69461757 -0.48950422 1.7117274 6974315
-0.69539464 -0.47414437 1.7132 7237210
-0.69448596 -0.44600487 1.7140001 7234665
-0.68924916 -0.42963248 1.7066001 7170410
-0.7030431 -0.40371644 1.7127501 6643293
-0.6940555 -0.41244856 1.7125 7170664
-0.70109338 -0.38652763 1.7096001 6710374
-0.6972965 -0.38751173 1.7120001 7038303
-0.70229971 -0.36990032 1.7120001 6579812
-0.70268822 -0.34970701 1.7138751 7104101
-0.70102924 -0.32933843 1.7105001 7169638
-0.69743329 -0.32830003 1.715 7103835
-0.70340985 -0.30906507 1.7110001 7301731
-0.7030499 -0.29079792 1.7096001 7104364
-0.70537066 -0.26895055 1.7133636 6973037
-0.70298749 -0.24899131 1.7116251 7038568
-0.7049672 -0.232135 1.7105001 6776932
-0.70558804 -0.20974955 1.7126 6906985
-0.70984095 -0.18910639 1.7108002 6710375
-0.70746642 -0.16932823 1.711625 6841961
-0.70642388 -0.15076776 1.7120001 6971755
-0.71060264 -0.12757516 1.7122309 6840170
-0.71009481 -0.11186261 1.7074209 6644582
-0.70775712 -0.089535475 1.7093749 7036776
-0.71405143 -0.069692641 1.7100346 6578791
-0.71133047 -0.05042173 1.7076875 6512229
-0.70695621 -0.028654097 1.7096001 6447212
-0.71024185 -0.0087325545 1.710091 6577766
-0.72030002 0.011433333 1.715 6512478
-0.71539998 0.0016333334 1.715 6185314
-0.71082747 0.0295537 1.7094617 6380127
-0.70914024 0.048601367 1.7092144 6183267
-0.71145821 0.068637319 1.7082505 6118741
-0.72030002 0.086566672 1.715 5134931
-0.713687 0.089984864 1.7117003 5855574
-0.71121055 0.10976567 1.7100499 5920081
-0.72356665 0.13295333 1.715 5987152
-0.71459424 0.12960866 1.7095218 5789017
-0.72356665 0.14210001 1.715 5920847
-0.71468925 0.14962462 1.7076366 5525585
-0.71182638 0.16809416 1.7093749 4866372
-0.71374953 0.18943192 1.7105001 4141870
-0.72179651 0.20906103 1.7127502 3681831
-0.71727842 0.21117449 1.7130001 3549737
-0.72120637 0.22228637 1.7120001 3549206
-0.71675962 0.23000148 1.7102631 3810592
-0.72216672 0.25410002 1.7150002 3354127
-0.71743757 0.24765067 1.7117274 3614478
-0.72247779 0.27276665 1.715 3614487
-0.71572667 0.26982668 1.715 3614232
-0.72310007 0.29213339 1.7150002 3484438
-0.71703333 0.29073334 1.715 3679765
-0.72263342 0.31033334 1.7150002 3156760
-0.71638006 0.31000668 1.715 3548953
-0.72302175 0.33038479 1.7137144 3155733
-0.7197696 0.33957526 1.7060001 3680279
-0.72097981 0.35069954 1.7127501 2761749
-0.71855342 0.35086882 1.7100002 2761746
-0.72168535 0.36714935 1.7133636 3350805
-0.71840143 0.37223098 1.7105001 3350290
-0.72030002 0.38056666 1.715 3416336
-0.71599591 0.38996586 1.7082499 3481112
-0.71418619 0.40918276 1.7108001 3089176
0.93370891 0.41071019 1.709 5460300
-0.71596432 0.43169335 1.7105001 3088922
-0.72843498 0.44789273 1.7060001 2366753
-0.71356064 0.44978967 1.7087393 3351061
-0.7154218 0.47074005 1.709 3221537
-0.72030002 0.48673335 1.715 3747876
-0.71697509 0.49090043 1.7102001 3945515
-0.71239269 0.5096612 1.7097501 4735033
-0.72951812 0.52804768 1.7060002 5324337
-0.7087298 0.52863723 1.7079288 5326162
-0.73336667 0.54226673 1.715 5128004
-0.71178263 0.5497337 1.7069471 5195074
-0.71332908 0.56876111 1.7120001 5195325
-0.71002388 0.59298825 1.7095 5195601
-0.72030002 0.61903334 1.715 5064511
-0.71585238 0.61065745 1.7107143 4997961
0.84933335 0.61903334 1.715 2565124
-0.72165954 0.63041574 1.7105 4602933
-0.71685219 0.63042831 1.709273 4800320
0.79870003 0.63101113 1.715 5787454
0.80931669 0.628425 1.715 4207916
0.83136672 0.62883335 1.715 2237194
0.84742785 0.63019443 1.715 2302981
0.88853335 0.6342777 1.715 1972240
-0.72432244 0.65333992 1.7096002 3617308
-0.71709394 0.64777905 1.7109091 4405817
0.79870003 0.64516675 1.715 4802860
0.80958891 0.65605563 1.715 3024403
0.82861573 0.6532473 1.7149999 2041355
0.85205555 0.65768898 1.715 2171400
0.86403334 0.6574167 1.715 1713929
0.88690007 0.6419 1.715 2494739
-0.72646111 0.66981345 1.7132001 3090973
-0.71584624 0.66826618 1.7114 4077100
0.81376296 0.6700297 1.715 2958352
0.82741225 0.67095619 1.7149999 2695179
0.85227334 0.66868663 1.7150002 2169351
0.86644042 0.67147201 1.7149999 1907208
0.88363338 0.67783344 1.715 1773598
-0.72335351 0.68673748 1.7115386 3088930
-0.71758622 0.6866343 1.7105 3418148
0.8099612 0.6895079 1.7142501 2629903
0.82973343 0.68926668 1.715 2170380
0.84961504 0.69101262 1.715 2234374
0.86806989 0.68952298 1.7122308 1839880
0.88798898 0.69057339 1.7150002 1577994
0.90813339 0.69198889 1.715 1380106
-0.72380829 0.70928884 1.7117275 2824974
-0.7197696 0.70027238 1.7060001 2956046
0.81057239 0.7101112 1.7140769 2628890
0.8294853 0.71092427 1.7127019 2169868
0.8495667 0.70863348 1.715 1645069
0.86818808 0.70914781 1.7136366 1971209
0.88914007 0.70947337 1.715 1774090
0.91140002 0.70968342 1.715 1773829
0.92446673 0.70886666 1.715 1381633
-0.72364229 0.72620285 1.7124287 2891800
-0.71611989 0.73535043 1.7105001 2498576
-0.15451334 0.7385934 1.715 1641992
0.35443333 0.72030002 1.715 5855820
0.71703333 0.73826671 1.715 6049868
0.72744584 0.73704165 1.715 5395278
0.77501667 0.73459172 1.715 3221785
0.7875573 0.73737091 1.7138751 2564373
0.80955541 0.73027569 1.713159 2628373
0.83058077 0.73174942 1.713594 1973518
0.85019302 0.73061579 1.7149999 1711619
0.86880767 0.72959757 1.7149999 1645064
0.88861495 0.72969168 1.7149998 1643012
0.91466665 0.72030002 1.715 1185281
-0.71552104 0.75076127 1.7075002 2563096
-0.15647334 0.74577999 1.715 1315849
0.45896667 0.75460005 1.715 5919550
0.67252499 0.75745839 1.715 5395277
0.68599999 0.75786668 1.715 5658190
0.71276152 0.753218 1.715 5460297
0.72961003 0.75157839 1.7149998 5263434
0.75029391 0.75415456 1.715 5196612
0.77116662 0.75156653 1.715 3090707
0.79128826 0.7512241 1.7131162 2498061
0.81107128 0.75174224 1.7137588 2497039
0.82973337 0.7513333 1.715 2038280
0.84975004 0.75197667 1.7138748 1775628
0.86807817 0.75122607 1.7121463 1643786
0.88760012 0.75226671 1.7150002 1707274
-0.72030002 0.76276666 1.715 2172176
-0.71724278 0.77063799 1.7116251 2758924
0.1715 0.76929998 1.715 5067081
0.63699996 0.77419996 1.715 5591633
0.65154445 0.77132219 1.715 5461070
0.66994834 0.76952517 1.715 5657154
0.68880004 0.76976675 1.7150002 5526346
0.70886683 0.76929986 1.7150002 5395014
0.72988105 0.76906776 1.7144859 5263691
0.75012606 0.77086234 1.715 4866612
0.77093327 0.76930004 1.7150002 2827284
0.78831917 0.76754504 1.7103449 2040845
0.81128359 0.76602584 1.7080457 2367241
0.83032018 0.76863605 1.7143334 1907461
0.84987032 0.7682277 1.7110004 1711113
0.86848587 0.7676478 1.7076874 1576972
0.88303941 0.76751816 1.715 1903370
0.91490006 0.77163339 1.7150002 1641987
-0.69084096 -0.64817619 1.723 6974030
-0.6903162 -0.6310342 1.7290001 7169889
-0.69357121 -0.60873109 1.7280003 7170664
-0.69666451 -0.5925892 1.7270911 6842203
-0.69388497 -0.5724653 1.7294288 7564140
-0.70187241 -0.55011624 1.7320001 7300442
-0.69725245 -0.55104572 1.7297502 7497318
-0.7016204 -0.52790779 1.728 6972769
-0.6975767 -0.53524941 1.7275002 7301991
-0.70190096 -0.51670039 1.7260002 7166558
-0.69616085 -0.5062713 1.7248001 7104619
-0.69634598 -0.48862287 1.7275 7302252
-0.70068669 -0.46438956 1.723 6975052
-0.69529146 -0.46750522 1.7269374 7433571
-0.70068669 -0.45782572 1.723 7171924
-0.69261849 -0.45064366 1.7269375 7301219
-0.68918687 -0.42930084 1.7270911 7170665
-0.70462501 -0.4026897 1.7229999 7037792
-0.69125116 -0.40921783 1.7262726 7367536
-0.70381159 -0.39167789 1.7249285 7169382
-0.69605207 -0.39129737 1.7278001 7105384
-0.70083112 -0.37031052 1.7266001 7038811
-0.69651771 -0.37066451 1.7311821 6908000
-0.70191288 -0.35088229 1.7238181 7170915
-0.69535333 -0.34907517 1.72975 7170667
-0.70190096 -0.33367047 1.7260002 7169641
-0.69572312 -0.33254218 1.7275 7235950
-0.70436388 -0.31001517 1.7272002 7170151
-0.70223641 -0.28989497 1.7258124 6908268
-0.70353574 -0.26896989 1.7284001 6973542
-0.70302767 -0.24990259 1.7282943 6973288
-0.70358652 -0.22994217 1.7251427 6711144
-0.7027207 -0.20966659 1.7263157 6972265
-0.70565832 -0.1918011 1.7256663 7169130
-0.70429879 -0.17181438 1.7267894 6907240
-0.70460969 -0.14718568 1.7280869 6842214
-0.70677567 -0.13114038 1.7273197 6710127
-0.70867032 -0.10972516 1.7277368 6710639
-0.70644289 -0.088873386 1.7280626 6906473
-0.70995015 -0.067643538 1.7272352 6709863
-0.71011996 -0.050592139 1.7275 6774379
-0.71080732 -0.030733969 1.7290001 6775147
-0.70947945 -0.0089616934 1.728 6577765
-0.72160882 0.011486667 1.7229998 6643040
-0.71183121 0.010149917 1.7267238 6380643
-0.70726442 0.028599942 1.7280625 6380901
-0.7061094 0.049101509 1.7282503 6707806
-0.70744818 0.069100007 1.7275 6184546
-0.70893443 0.089064375 1.7261764 5986653
-0.70948821 0.1094891 1.7278463 5724259
-0.71373409 0.13081217 1.7290001 5854547
-0.71282089 0.14996625 1.7280626 5326920
-0.71097302 0.16969398 1.7275002 4667965
-0.71075267 0.19208935 1.727909 3813163
-0.71417195 0.2095453 1.7272857 3811887
-0.71368545 0.23058517 1.728 3941422
-0.72694188 0.25762954 1.723 3354899
-0.71535259 0.24958684 1.729 3614749
-0.72621262 0.26783988 1.7229998 3613977
-0.71472961 0.27050719 1.7284001 3680289
-0.72103447 0.29110494 1.7229999 3679518
-0.71567279 0.2895605 1.7275 4072224
-0.7203781 0.31178096 1.723 3483147
-0.71444565 0.31048301 1.7273042 3351582
-0.72218096 0.33148003 1.7236922 3351327
-0.71524423 0.32933959 1.7300001 3483175
-0.72053277 0.3435505 1.7260002 3285805
-0.71347266 0.35111317 1.7269598 3285277
-0.72053277 0.37096256 1.7260002 3678738
-0.71321142 0.36809397 1.7284782 3416861
-0.71459174 0.38966429 1.726375 3612182
-0.7132526 0.40983468 1.7271539 3154455
0.94463122 0.41715083 1.7290001 5724488
-0.71491688 0.42964187 1.727 3285017
0.95342481 0.42392763 1.7320001 4343079
-0.73678762 0.44305712 1.723 2560793
-0.71350628 0.44829473 1.7271539 3220500
-0.71128041 0.46963859 1.7267058 3942960
-0.71381843 0.48911485 1.7264286 4470060
-0.7118873 0.50986141 1.7275 5064007
-0.12811302 0.50750351 1.7320002 1973514
-0.71014577 0.52931583 1.7280626 5457746
0.89239246 0.53939432 1.7320001 2498836
0.90558863 0.53856957 1.7320001 2039564
-0.71115094 0.55074453 1.7275002 5523792
0.82735407 0.54929149 1.7320004 5659729
0.85610288 0.5591886 1.7320001 4935473
0.87061876 0.55720919 1.7320002 3221780
0.89120483 0.54968733 1.7319998 2563097
0.90597671 0.55181426 1.7320002 2497046
0.93253082 0.55808896 1.7320002 1776390
0.94872946 0.55186349 1.7313075 1316615
-0.70958287 0.57004923 1.7289999 5393226
0.2754705 0.56578672 1.7320001 6447975
0.81733906 0.57815814 1.7320001 5724002
0.82311243 0.57568383 1.7320001 5855822
0.85563159 0.57144225 1.7320004 3879979
0.87061876 0.5743643 1.7320002 2564881
0.89038235 0.57335508 1.7311429 2431254
0.91095817 0.57321447 1.7299229 2168337
0.93105465 0.57239676 1.7316085 1381899
0.94847625 0.56619912 1.7320002 1708293
-0.71250474 0.59034145 1.7300717 4999757
-0.68290293 0.59877717 1.7320001 4734518
-0.14680763 0.59712768 1.7320002 1907977
-0.13361144 0.59712768 1.7320002 1908750
0.22598477 0.59877717 1.7320001 6053977
0.81115335 0.59382862 1.7320002 5986382
0.85610294 0.59547812 1.7320001 2697735
0.87179601 0.59198457 1.731437 2302733
0.89071453 0.5902124 1.7314852 2300432
0.91033226 0.58946449 1.7307495 1971976
0.93080688 0.59096593 1.7311559 1448452
0.94187814 0.58228195 1.7320001 1513218
-0.70652884 0.610892 1.7273444 5261905
-0.69044358 0.6119734 1.7320004 4802106
-0.66871697 0.6141727 1.7320004 3813667
-0.14746745 0.61120373 1.7319996 2169356
-0.13559087 0.6090042 1.7320002 1710860
0.19239943 0.61400878 1.7265999 5987157
0.20807567 0.61668628 1.7320004 6052689
0.22598477 0.60207623 1.7320001 6184283
0.26689297 0.61395288 1.7320002 6118229
0.81030428 0.61216742 1.7320002 5658703
0.83252376 0.61546195 1.7293001 3156497
0.8518343 0.61201328 1.7279993 2696199
0.87072074 0.6099382 1.7271702 2367501
0.89109319 0.6096279 1.7268914 2365463
0.90920645 0.61198062 1.7310355 1709830
0.93582988 0.60812449 1.7320002 1252359
0.94517714 0.6152724 1.7320002 1643269
-0.71098429 0.62969381 1.7276664 5326915
-0.6898309 0.63176769 1.7320002 4866360
-0.66793031 0.62935686 1.7319999 3484701
-0.6539185 0.62752604 1.7320004 3218709
-0.58338165 0.6372661 1.7320001 2892552
-0.57568383 0.6372661 1.7320001 2825485
-0.14548801 0.62764382 1.7320002 2037260
-0.1369105 0.63011813 1.7320002 2036993
0.19479379 0.63071793 1.7320001 5986124
0.21119225 0.63049066 1.7319995 6052182
0.2291102 0.63367766 1.7320002 5920857
0.24981123 0.63653296 1.7320002 6182486
0.27876952 0.63671625 1.7320001 6053969
0.29196572 0.63836575 1.7320001 6117717
0.31505907 0.63671625 1.7320001 6184786
0.34475049 0.62352002 1.7320001 6250075
0.38928765 0.63836575 1.7320001 6381400
0.41146457 0.6295684 1.7320002 6447188
0.42062861 0.63671625 1.7320001 6446683
0.75713146 0.63506675 1.7320001 5922122
0.76993918 0.63104796 1.7297496 5790795
0.78729415 0.63341725 1.7320004 5854803
0.80986774 0.62939054 1.7262493 5128508
0.83070201 0.62927455 1.7259185 2696456
0.84896916 0.62923074 1.7229998 2368261
0.87050265 0.63131094 1.7282754 1909003
0.88829613 0.62947357 1.7273632 2234637
0.90936571 0.63001609 1.7272183 1905925
0.92768067 0.63451481 1.7315003 1774338
0.95067561 0.62406987 1.7320001 1708290
-0.71141678 0.65075004 1.7280996 5130056
-0.69185752 0.65156192 1.7320004 4406587
-0.66805714 0.65272635 1.7320002 3090461
-0.65242267 0.65127504 1.732 3087376
-0.63836575 0.65156192 1.7320001 2955553
-0.58723056 0.6466133 1.7320002 3020822
-0.57040536 0.65321147 1.7320002 2693397
-0.14020954 0.6416648 1.7320001 1971475
-0.13691048 0.6416648 1.7320001 2036997
0.19396177 0.64874631 1.7276796 5658449
0.21051338 0.64826286 1.7319996 5921366
0.23168314 0.64956248 1.7319995 5855062
0.25072756 0.64991254 1.7319994 6051667
0.27115637 0.65245014 1.7319999 5987164
0.29563135 0.65156192 1.7320002 5725273
0.31040648 0.65124232 1.7298819 6118490
0.32429639 0.64892274 1.7320002 5987675
0.37444192 0.65651053 1.7320002 6250326
0.38669556 0.65109074 1.7320004 6119253
0.40083432 0.6416648 1.7320001 6120029
0.471214 0.65816009 1.7320001 6381138
0.48166096 0.65816003 1.7320001 6184534
0.51135242 0.65486097 1.7320002 6185047
0.69115055 0.65816003 1.7320001 6314587
0.77403909 0.64455146 1.7320002 5724503
0.79093808 0.65047127 1.7302969 5592913
0.80932814 0.64865953 1.7245426 3945510
0.82954496 0.64681101 1.7233747 2762002
0.84976459 0.64996642 1.7229997 2367754
0.86887324 0.64952344 1.7244059 1973774
0.88797253 0.65092689 1.7244996 1906450
0.91008353 0.64919329 1.7282499 1511182
0.92957145 0.6503247 1.7301048 1381894
0.94847625 0.65444863 1.7320002 1381379
-0.7203781 0.6744315 1.723 4077098
-0.71036381 0.6682747 1.7281816 4997693
-0.69115055 0.6669575 1.7320002 4208433
-0.6685459 0.67037874 1.7319998 3089163
-0.6535781 0.6678738 1.7320002 2824968
-0.62681913 0.66915691 1.7320002 2824463
-0.61461264 0.66739738 1.7320002 2628112
-0.58492124 0.67597497 1.7320002 2758168
-0.56984705 0.67008734 1.7319999 2824716
-0.54434288 0.67630482 1.7320001 2301186
-0.53169656 0.66585785 1.7320001 2563334
-0.3097806 0.67531508 1.7320002 2429707
-0.27093431 0.6767171 1.7320002 1709066
-0.25567621 0.67795438 1.7320001 1970698
-0.14746743 0.67300576 1.7320002 1905929
0.19309828 0.66943043 1.7297499 5789001
0.21052213 0.67179966 1.7298179 5593167
0.23075691 0.6701259 1.7288496 5592663
0.25047067 0.66992307 1.7317561 5789271
0.26909235 0.66959679 1.7320004 5921104
0.29402763 0.67218107 1.7320002 5921608
0.30914655 0.67039156 1.7288373 6052181
0.32165718 0.66970676 1.7320002 6182737
0.35388637 0.67389405 1.7320002 6183000
0.36988148 0.67019165 1.7319995 6184020
0.38582087 0.67198509 1.7308004 6118995
0.41053462 0.67146862 1.72975 6250076
0.42128846 0.67399544 1.7320002 6315856
0.45251939 0.67410553 1.7320002 6054488
0.46681529 0.67025661 1.7319999 6250582
0.48305678 0.66957974 1.7320002 6250840
0.51284492 0.67198467 1.7320001 6446167
0.52289903 0.67630482 1.7320001 6118491
0.57172501 0.67135626 1.7320002 6315609
0.62764382 0.67548001 1.7320001 6446658
0.67512661 0.67135626 1.7320004 5987149
0.68730164 0.66943181 1.7320002 5988187
0.71754289 0.67795432 1.7320001 5790804
0.73337829 0.67036647 1.7320002 5855820
0.75077778 0.6690346 1.7319998 5986385
0.76592898 0.6730057 1.7320002 5592911
0.79054445 0.66846007 1.7308382 5395261
0.80721939 0.66979659 1.7252498 3353628
0.83313501 0.66997749 1.7229998 2891014
0.84705967 0.67000091 1.7229998 2170374
0.8728773 0.66852409 1.7229998 1907972
0.88882565 0.67033648 1.7244512 1906958
0.90845293 0.67058563 1.7316537 1577994
0.92976397 0.6698193 1.7280484 1447941
0.94796866 0.66907215 1.7320002 1250562
-0.7203781 0.6974048 1.723 3351075
-0.7123546 0.68945831 1.7284782 4273714
-0.68249059 0.69197524 1.7320002 2369562
-0.67113626 0.68928111 1.7319996 2694165
-0.65816003 0.68950099 1.7320001 2758671
-0.629924 0.6891129 1.7319995 2693898
-0.61032385 0.68950111 1.7319994 2234634
-0.59001762 0.69126409 1.7319996 2300944
-0.57097089 0.6897366 1.7319994 2824721
-0.55808896 0.69334996 1.7320002 2301711
-0.52619809 0.69115061 1.7320002 2759179
-0.50982982 0.69038916 1.7319999 2104078
-0.49606687 0.69115049 1.7320004 2103055
-0.46021718 0.69609904 1.7320001 2562316
-0.44738755 0.68711835 1.7320002 2560522
-0.40413335 0.69280005 1.7320001 2038785
-0.31176001 0.68455243 1.7320001 1447176
-0.28866667 0.6977486 1.7320001 2036751
-0.26963371 0.68480629 1.7320002 1970951
-0.25303695 0.68455243 1.7320002 1840142
-0.23588191 0.6977486 1.7320001 1644033
-0.18309715 0.69280005 1.7320001 2036995
-0.17061815 0.69373232 1.732 1905420
-0.15030074 0.69115043 1.7320002 1970443
0.19512898 0.6870752 1.7320002 5461320
0.21110328 0.68932927 1.7298995 5395798
0.22998087 0.68885213 1.7234998 5592144
0.25011754 0.68939865 1.7289206 5658192
0.27194393 0.69024026 1.7319996 5855054
0.28995201 0.68863297 1.727615 5724757
0.30969349 0.68813568 1.7254542 5789789
0.32939035 0.69213873 1.7289999 6052437
0.3485994 0.68881363 1.7319999 5790811
0.36931005 0.6858353 1.7320002 5856088
0.39084092 0.69364196 1.7300001 6119000
0.40905181 0.6898675 1.7295452 6119261
0.42528608 0.6870752 1.7320002 6119515
0.44922036 0.68290299 1.7320002 5988442
0.46186668 0.68125337 1.7320001 6380898
0.49403241 0.69383091 1.7320002 6118493
0.51138049 0.69044554 1.7302494 6249562
0.52949721 0.69425547 1.7320002 6184276
0.54819179 0.69664896 1.7320001 6184278
0.57178497 0.6959492 1.7320002 6053978
0.58338165 0.69554919 1.7320001 5924181
0.67630482 0.68125337 1.7320001 6117980
0.69303572 0.69633478 1.7320004 5921363
0.71176952 0.69300622 1.7320002 5855571
0.72579062 0.68549508 1.7320004 5790045
0.75190061 0.68994778 1.7313573 5723213
0.76791692 0.68950105 1.7319999 5461072
0.78981793 0.69100934 1.7309088 4604473
0.80375791 0.68758374 1.7285714 2957859
0.82868099 0.68099529 1.723 2826800
0.85066968 0.68362081 1.7229998 2039304
0.86314094 0.68263626 1.723 1645059
0.89377207 0.68427724 1.7229999 1643027
0.91065896 0.68865377 1.7265998 1314831
0.92962563 0.68977147 1.7308745 1576966
0.94297785 0.68235302 1.7320001 792065
-0.7203781 0.70889139 1.7229999 3350036
-0.71461296 0.70921278 1.7287598 3548709
-0.68519849 0.71009862 1.7315502 2824730
-0.66915113 0.70867097 1.7290807 2563088
-0.65155298 0.71116054 1.731333 2627854
-0.63063008 0.71026224 1.7319996 2628622
-0.61048353 0.70870984 1.7319995 2627849
-0.59092766 0.70946592 1.7319996 2300429
-0.57254183 0.70748866 1.7320001 2627849
-0.55049109 0.70794564 1.7320002 2366221
-0.53114671 0.70434666 1.7320001 2303233
-0.5080533 0.70104766 1.7320001 2234630
-0.49068484 0.70783979 1.7320002 2365450
-0.46968397 0.70606798 1.732 2496013
-0.39093718 0.71754289 1.7320001 1905673
-0.28767699 0.71061486 1.7320002 2035985
-0.27107176 0.71259439 1.7320002 1775107
-0.22911887 0.71259433 1.7320002 2101002
-0.21650001 0.71218193 1.7320002 2101261
-0.18309715 0.70929527 1.7320001 1643522
-0.16968812 0.70828414 1.7319995 1904910
-0.1512984 0.70717901 1.7261933 1904902
0.1767499 0.7132439 1.7248 5329494
0.19138765 0.71118438 1.7295672 5526349
0.21090576 0.70925033 1.7284875 5461319
0.22951396 0.7090618 1.7247497 5592142
0.25123367 0.71014458 1.73147 5526856
0.27010518 0.7097016 1.7295849 5592394
0.28955075 0.71014267 1.7314701 5855313
0.31087011 0.70964289 1.7313073 5724245
0.32929188 0.70850021 1.7244995 5855568
0.34958225 0.71104842 1.7285942 5986900
0.37034902 0.71037662 1.7292995 5790804
0.39003569 0.70835137 1.7280483 5987417
0.4098407 0.70790076 1.7287599 6248797
0.43003905 0.71167547 1.7300711 6249559
0.44514364 0.71392268 1.7306157 6118735
0.47247082 0.71283001 1.7320004 6249558
0.48873788 0.7090292 1.7319995 6052952
0.51120394 0.70727932 1.7307143 6380629
0.53009486 0.7061035 1.73125 6184274
0.54929149 0.70302707 1.7320002 5987678
0.57174629 0.70881635 1.7319995 6249301
0.58431214 0.70942211 1.7320002 5987672
0.61233997 0.71607667 1.7320002 6117974
0.62352002 0.71589333 1.7320001 6052175
0.65279406 0.71337485 1.7302856 5921107
0.66977841 0.71194875 1.732 5921105
0.69015086 0.70994514 1.7319995 5920591
0.70896536 0.70841551 1.7319996 5920342
0.72939521 0.71186411 1.729107 5592906
0.7494874 0.7095778 1.7290694 5592141
0.77074671 0.70860231 1.7268295 5460033
0.79051733 0.70793492 1.724097 3287576
0.80242574 0.70889139 1.7229999 2434311
0.89760095 0.71381426 1.723 1578755
0.90547752 0.7056095 1.7229998 1773570
0.93139553 0.70809621 1.7261304 1512195
0.95036465 0.71341425 1.7294288 1182977
-0.7213158 0.72741073 1.7229999 2302221
-0.70918328 0.7292968 1.7280867 2563096
-0.68908209 0.728342 1.7263423 2366488
-0.66959041 0.72832078 1.7270495 2301201
-0.65007931 0.72844148 1.7302495 2366218
-0.63011926 0.72917348 1.7283179 2693906
-0.60951412 0.72845805 1.7295671 2432266
-0.59089202 0.72930884 1.7312889 2496782
-0.57174629 0.73010057 1.7319995 2235918
-0.54843086 0.73073912 1.732 2039050
-0.53217137 0.73197681 1.7303119 2366983
-0.51547617 0.73321342 1.7320002 1973779
-0.48863974 0.72464865 1.7320002 2430732
-0.47011429 0.72908956 1.7320001 1973511
-0.44537148 0.73623753 1.7320002 1907486
-0.4276666 0.73403817 1.7320004 2495243
-0.41092551 0.72918665 1.7320002 2233349
-0.3898375 0.73005188 1.7319999 1971207
-0.36289525 0.73568761 1.7320001 1775886
-0.3542811 0.73220539 1.7320002 2037517
-0.32731268 0.73592335 1.7320004 1579019
-0.30807284 0.73267972 1.7320002 1709839
-0.29017478 0.72932512 1.7319994 1971974
-0.27382094 0.72682148 1.7320002 1709319
-0.24954942 0.73356688 1.7320004 1512706
-0.23044819 0.72947776 1.7319995 1577228
-0.21476801 0.7295844 1.7320002 1644036
-0.18969524 0.72084194 1.7320001 1643781
-0.16293631 0.73183876 1.7320002 1642246
-0.15560508 0.73073906 1.7320002 1969671
0.17472994 0.7296477 1.7238568 5199174
0.19035047 0.72858286 1.7229997 5133642
0.2098771 0.72847539 1.7234862 5329991
0.22994047 0.72866732 1.7244995 5526096
0.25012216 0.72771561 1.7260784 5461063
0.26919875 0.72837359 1.7232429 5592140
0.2892676 0.72782314 1.7245362 5723470
0.31020236 0.72777259 1.7244996 5658193
0.3315638 0.72837365 1.7232429 5789518
0.35102323 0.72872359 1.7229997 5855052
0.37051579 0.72804272 1.7273331 5790036
0.38806739 0.72911096 1.7313789 5986894
0.40949142 0.73097849 1.7304996 5986898
0.42824334 0.72791511 1.7269226 5921877
0.4470683 0.7293033 1.7315714 6118480
0.47407314 0.72875977 1.7320004 5791564
0.48956087 0.72901201 1.731341 5856080
0.50993687 0.73084724 1.7302575 5791063
0.53074443 0.73058993 1.7280765 5790543
0.54911882 0.73379779 1.7280002 5659474
0.57091856 0.72963947 1.7319998 5921620
0.58360159 0.72875965 1.7320002 5921873
0.61154538 0.72909683 1.7289994 5790035
0.62884367 0.73172188 1.7279998 5789777
0.65095562 0.72935748 1.7289264 5593683
0.66965759 0.72854954 1.725605 5593174
0.68888187 0.72840792 1.7297493 5658451
0.7094292 0.732086 1.7285584 5395793
0.72810853 0.72758013 1.7249455 5461334
0.75024766 0.72869843 1.7244648 5460548
0.76964736 0.72746873 1.7235451 4867383
0.79205048 0.72768295 1.7229997 2368281
0.80242574 0.72858286 1.7229999 2433049
0.87462759 0.73678762 1.723 1580545
0.91054887 0.72962248 1.7238998 1446148
0.92928612 0.72796035 1.7250452 1315330
0.94907606 0.7235412 1.7320002 1249806
-0.72061002 0.75023711 1.7275002 2563344
-0.70867133 0.75015903 1.7249684 2955031
-0.68880492 0.74758929 1.7249997 2497550
-0.66983676 0.74889761 1.7314852 2431244
-0.65026271 0.74711251 1.726724 2823706
-0.62959605 0.74800062 1.7265521 2563345
-0.61094671 0.74969083 1.7317183 2366221
-0.59099239 0.74840999 1.7317494 2366987
-0.57025009 0.74849558 1.7319995 2300428
-0.55181086 0.74852091 1.7305478 2235911
-0.52923656 0.74810094 1.7252496 2301706
-0.51170963 0.75215691 1.7299225 2104581
-0.4899421 0.75247604 1.7305399 2234894
-0.46799356 0.75076902 1.7319998 2168846
-0.44843486 0.75065124 1.7319998 2298891
-0.42897326 0.74878699 1.7319995 2494728
-0.40771934 0.75110722 1.732 1970955
-0.3900491 0.74944681 1.7306496 2167304
-0.36912087 0.74957556 1.7319995 1840651
-0.35020664 0.74812251 1.7319999 2036747
-0.33014041 0.74758786 1.7319998 1774855
-0.30990431 0.74826515 1.7319995 1839878
-0.29031625 0.74888396 1.7319994 1839881
-0.27358529 0.75100476 1.7320001 1512203
-0.25033951 0.74917501 1.7319995 1512198
-0.231169 0.74893105 1.7319994 1512198
-0.21158892 0.74843413 1.7319995 1839107
-0.19212611 0.75313807 1.7320002 2101003
-0.17030254 0.75161034 1.7272854 1577737
-0.15752552 0.74620372 1.7266001 1642506
0.17211248 0.75066537 1.7229997 5198160
0.19035049 0.7499153 1.7229998 5198408
0.2100419 0.7499153 1.7229998 5329731
0.23029073 0.75078273 1.7257208 5263688
0.24952497 0.7503348 1.7259998 5329233
0.26910686 0.74941003 1.7270904 5460300
0.28950581 0.74972892 1.7239227 5591632
0.30877826 0.7494306 1.7268567 5592398
0.33155075 0.74951702 1.7277496 5658449
0.35116386 0.74991536 1.7229998 5789766
0.37032625 0.7505061 1.7281748 5724494
0.39178142 0.7503168 1.7301534 5659475
0.4089565 0.74761498 1.7245362 5855313
0.42980379 0.74974304 1.7282252 5790286
0.44921753 0.75100893 1.7280622 5790034
0.46912661 0.75018162 1.7269995 5856080
0.4906784 0.74899399 1.7319996 5724757
0.51102561 0.74990141 1.7291573 5658969
0.53075099 0.74832231 1.7262495 5658952
0.55075324 0.74730396 1.7254229 5723470
0.56952864 0.75090295 1.7304114 5723728
0.59064239 0.75390577 1.7296666 5592909
0.61014819 0.75024831 1.7258723 5658697
0.63063866 0.7493149 1.7246871 5658447
0.6496315 0.74972081 1.72525 5592651
0.66916317 0.7488789 1.7229998 5592146
0.68979895 0.74798864 1.7236748 5526607
0.70779258 0.7488662 1.7232429 5526343
0.7203781 0.75483811 1.723 5131848
0.75196648 0.74776143 1.7229997 5198151
0.76534027 0.74532056 1.7229998 4605748
0.7938928 0.74072593 1.7229999 2826267
0.80242568 0.74171048 1.723 2760208
0.87462759 0.74171048 1.723 1514753
0.89300632 0.74466419 1.7229999 1511173
0.91070503 0.7508297 1.7268567 1445643
0.92991018 0.7488091 1.7317091 1184777
-0.72256607 0.77343553 1.7229999 2562826
-0.7096231 0.77023005 1.7285941 2823957
-0.68897754 0.76899219 1.7301536 2497296
-0.67000657 0.76815009 1.7307138 2497544
-0.65066272 0.76781112 1.7296172 2497034
-0.6303286 0.7679835 1.7301536 2432018
-0.61032391 0.76867843 1.7319994 2562829
-0.5925597 0.76956636 1.7319999 2497036
-0.56900507 0.76955837 1.7314371 2300688
-0.55139494 0.76915878 1.7315258 2235146
-0.53023815 0.76953471 1.7289996 2562565
-0.50972992 0.76922661 1.7267237 2169603
-0.4903709 0.76868093 1.7300905 2496009
-0.46890748 0.76808697 1.7303841 2430474
-0.44867045 0.76867813 1.7319994 2298889
-0.42907026 0.76916337 1.7319995 2233606
-0.4096393 0.76876575 1.7311814 2101511
-0.38932145 0.76875067 1.7317494 2036489
-0.36954337 0.76922804 1.7319995 2167047
-0.35049725 0.76968908 1.7319995 2101770
-0.32957485 0.77045971 1.7319998 1904642
-0.30990434 0.76909071 1.7319995 1970180
-0.29031622 0.76867837 1.7319994 1969670
-0.27052194 0.76867837 1.7319994 1708550
-0.25072762 0.76867819 1.7319994 1839109
-0.23093338 0.76867825 1.7319994 1708294
-0.21212874 0.76914001 1.7319998 1838856
-0.19134478 0.76867819 1.7319994 1904648
-0.17025886 0.77121615 1.7237939 1642756
0.17106929 0.77155536 1.7229997 5066566
0.19035049 0.77124763 1.7229997 5132365
0.21004188 0.77124768 1.7229997 5263692
0.2297333 0.77124768 1.7229997 5394251
0.2494248 0.77124768 1.7229997 5263439
0.27003017 0.76989567 1.7257998 5329222
0.28841138 0.7706033 1.7239227 5461323
0.31079441 0.7701 1.7251595 5722961
0.33115304 0.76912254 1.7256248 5592648
0.3511638 0.7712478 1.7229997 5592645
0.37062091 0.77148217 1.7229997 5789773
0.38925344 0.77051318 1.7266425 5920589
0.41027677 0.77086139 1.7267312 5986386
0.4288063 0.76973748 1.7257206 5789773
0.44838557 0.77048802 1.7242854 5855302
0.46882972 0.77163374 1.7229997 5790541
0.48898888 0.76892054 1.7282499 5920848
0.51034862 0.769045 1.7284542 5986375
0.53138453 0.7702654 1.7285998 5658957
0.55098188 0.7697261 1.7269807 5592648
0.57069403 0.76958102 1.724636 5723465
0.59084302 0.77049118 1.7253567 5593418
0.60974604 0.77066529 1.7229997 5593162
0.62970066 0.7695865 1.7257206 5527369
0.64835864 0.76668936 1.7229997 5658438
0.6658985 0.76369929 1.7229999 5854794
0.6974048 0.76468384 1.723 5657921
0.70314813 0.76386338 1.723 5264452
0.75688928 0.76591456 1.7229998 4997407
0.76304287 0.76632488 1.723 4206115
0.89408463 0.77429509 1.7229998 1773072
0.90920413 0.77153319 1.724636 1379848
0.93130046 0.76723081 1.7300712 1380101
0.94297785 0.77142733 1.7320002 1839363
-0.70599627 0.78187436 1.7320002 2430996
-0.68950099 0.78187436 1.7320002 2956816
-0.6697067 0.78187436 1.7320002 2694921
-0.64991248 0.78187436 1.7320002 2301464
-0.63011813 0.78187436 1.7320002 2564372
-0.61032379 0.78187436 1.7320002 2235144
-0.59052956 0.78187436 1.7320002 2758674
-0.57403427 0.78187436 1.7320002 2431242
-0.55094105 0.78187436 1.7320002 2496520
-0.53444576 0.78187436 1.7320002 2496774
-0.50970292 0.78187436 1.7320002 1906952
-0.48990861 0.78187436 1.7320004 2365197
-0.46846482 0.78187436 1.7320002 2299656
-0.44867051 0.78187436 1.7320002 2036750
-0.42887622 0.78187436 1.7320002 2232331
-0.40908194 0.78187436 1.7320002 1971462
-0.38928765 0.78187436 1.7320002 2102540
-0.36949337 0.78187436 1.7320002 2232327
-0.34969908 0.78187436 1.7320002 1906189
-0.32990479 0.78187436 1.7320002 1511686
-0.31011051 0.78187436 1.7320002 1904386
-0.29031622 0.7818743 1.7320002 1708545
-0.27052194 0.78187436 1.7320002 1773572
-0.25072765 0.78187436 1.7320002 1641986
-0.23093334 0.78187436 1.7320002 1576195
-0.21113907 0.78187436 1.7320002 1184018
-0.19134478 0.78187436 1.7320002 2165766
-0.1797981 0.7818743 1.7320001 1840129
0.40413335 0.7818743 1.7320001 5790031
0.49815619 0.7818743 1.7320001 5593430
0.50970286 0.78187436 1.7320002 5724499
0.52454859 0.7818743 1.7320001 5920592
0.61692196 0.7818743 1.7320001 5593165
0.93198103 0.78187436 1.7320002 1707024
-0.69630051 -0.66282719 1.7575001 7301994
-0.6942057 -0.64961541 1.7493078 7104873
