# .PCD v0.7 - Point Cloud Data file format
VERSION 0.7
FIELDS x y z rgba
SIZE 4 4 4 4
TYPE F F F U
COUNT 1 1 1 1
WIDTH 1230
HEIGHT 1
VIEWPOINT 0 0 0 1 0 0 0
POINTS 1230
DATA ascii
-0.63333809 0.52236378 1.177 722442
-0.60643524 0.52348477 1.177 132609
-0.66136193 0.5268476 1.177 65793
-0.65687811 0.5268476 1.177 65795
-0.65239429 0.52796859 1.177 131594
-0.64903146 0.52572668 1.177 197633
-0.64081115 0.526474 1.177 328449
-0.63670099 0.5268476 1.177 460561
-0.63333809 0.5268476 1.177 854540
-0.66136193 0.53133142 1.177 65796
-0.65687811 0.53133142 1.177 131333
-0.65239429 0.53133142 1.177 131334
-0.64006382 0.53133142 1.177 328967
-0.63670099 0.53133142 1.177 657160
-0.63333809 0.53133142 1.177 1247493
0.021370478 -0.15634191 1.1810001 3217182
0.019120954 -0.15184286 1.1810001 3544608
0.021370478 -0.15409239 1.1810001 3277851
-0.026619367 -0.14659397 1.1810001 131333
0.018558573 -0.14734381 1.1810001 2954276
-0.025869526 -0.14172003 1.1810001 131350
-0.023620002 -0.14172003 1.1810001 197141
0.017621271 -0.14209494 1.1810001 2427676
-0.023620002 -0.13834573 1.1810001 196883
0.01687143 -0.13722098 1.1810001 2360600
0.013872065 -0.13234702 1.1810001 2692611
0.01687143 -0.13384669 1.1810001 3019794
-0.010122858 -0.12709811 1.1810001 918274
0.003374286 -0.12709811 1.1810001 920327
0.006748572 -0.12709811 1.1810001 1837844
0.012372382 -0.12934765 1.1810001 3217943
-0.00562381 -0.12034953 1.1810001 1114881
-0.002249524 -0.1214743 1.1810001 1180417
0.002249524 -0.12259907 1.1810001 1114884
0.0063736513 -0.12409875 1.1810001 1969427
0.001124762 -0.11810001 1.1810001 1639681
0.00562381 -0.11810001 1.1810001 2165255
0.021370478 -0.010122858 1.1810001 132911
0.026994288 -0.010122858 1.1810001 131875
0.03936667 -0.010122858 1.1810001 132144
0.012822287 -0.0065236199 1.1810001 263185
0.017996192 -0.006748572 1.1810001 66847
0.02249524 -0.006748572 1.1810001 131871
0.026994288 -0.006748572 1.1810001 197662
0.032618102 -0.006748572 1.1810002 132646
0.038241908 -0.006748572 1.1810001 132405
0.042740956 -0.00562381 1.1810001 67616
0.047240004 -0.00562381 1.1810001 68380
0.013872065 -0.0026244447 1.1810001 66056
0.017996192 -0.002249524 1.1810001 65806
0.02249524 -0.002249524 1.1810001 65808
0.026994288 -0.002249524 1.1810001 65809
0.032618098 -0.002249524 1.1810002 65807
0.038241908 -0.002249524 1.1810001 65815
0.042740956 -0.002249524 1.1810001 65804
0.046865087 -0.0026244447 1.1810001 66323
0.013497144 0.002249524 1.1810001 65794
0.017996192 0.002249524 1.1810001 65799
0.02249524 0.002249524 1.1810001 65800
0.026994288 0.002249524 1.1810001 65797
0.032618102 0.002249524 1.1810002 65799
0.038241908 0.002249524 1.1810001 66063
0.042740956 0.002249524 1.1810001 66833
0.047240004 0.002249524 1.1810001 66832
0.013872065 0.0071234927 1.1810001 66051
0.017996192 0.006748572 1.1810001 131591
0.02249524 0.006748572 1.1810001 393740
0.026994288 0.006748572 1.1810001 197128
0.032618098 0.006748572 1.1810002 65796
0.038241908 0.006748572 1.1810001 131339
0.042740956 0.006748572 1.1810001 131857
0.046865087 0.0071234927 1.1810001 68378
-0.00562381 0.013497144 1.1810001 66321
-0.001124762 0.013497144 1.1810001 657692
0.002249524 0.013497144 1.1810001 397080
0.006748572 0.012372382 1.1810002 199430
0.012653572 0.012653572 1.1810001 132610
0.017996192 0.012372382 1.1810002 197393
0.02249524 0.01124762 1.1810001 787992
0.027219241 0.011922478 1.1810001 395300
0.032618098 0.012372382 1.1810001 394254
0.038241908 0.012372382 1.1810002 196867
0.042740956 0.012372382 1.1810002 65797
0.046115242 0.012372382 1.1810001 65800
-0.00562381 0.017996192 1.1810001 66317
-0.002249524 0.017996192 1.1810001 264223
0.002249524 0.017996192 1.1810001 266535
0.006748572 0.017996192 1.1810001 199696
0.012372382 0.017996192 1.1810002 590855
0.017996192 0.017996192 1.1810001 65807
0.021370478 0.01687143 1.1810001 131606
0.027369209 0.017621271 1.1810001 328986
0.032618098 0.017996192 1.1810002 722959
0.038241908 0.017996192 1.1810001 526096
0.042740956 0.017996192 1.1810001 198410
0.047240004 0.017996192 1.1810001 197896
0.051364135 0.018371113 1.1810001 197126
0.057362866 0.019120954 1.1810001 66565
-0.006748572 0.02249524 1.1810001 66050
0.006748572 0.021370478 1.1810001 199442
0.012372382 0.021370478 1.1810001 526093
0.019120954 0.021370478 1.1810001 65804
0.032618098 0.021370478 1.1810001 460568
0.038241908 0.021370478 1.1810001 395055
0.042740956 0.021370478 1.1810001 329498
0.047240004 0.021370478 1.1810001 263960
0.051739052 0.02249524 1.1810001 525842
0.057362866 0.02249524 1.1810002 198152
0.061861914 0.021370478 1.1810001 131845
-0.010122858 0.02811905 1.1810001 590599
-0.007873334 0.026994288 1.1810001 262658
0.032618098 0.02811905 1.1810001 198146
0.051739052 0.026994288 1.1810001 461593
0.057362866 0.026994288 1.1810002 199441
0.062986672 0.02811905 1.1810001 68109
-0.011997461 0.032618098 1.1810002 131849
-0.007873334 0.031493336 1.1810001 132100
0.032618098 0.030368574 1.1810001 197892
0.052863818 0.032618098 1.1810001 461591
0.057362869 0.032618094 1.1810001 200218
0.062986672 0.032618098 1.1810002 331029
-0.021370478 0.03936667 1.1810001 65807
-0.017621271 0.038616829 1.1810001 66057
-0.014621906 0.038241908 1.1810001 66058
0.052863814 0.037117146 1.1810001 198419
0.057362866 0.038241908 1.1810002 263953
0.062986672 0.038241908 1.1810001 461077
0.067110799 0.038616829 1.1810001 199196
-0.022120319 0.043115877 1.1810001 65798
-0.017996192 0.042740956 1.1810001 65796
0.058487624 0.041616194 1.1810001 525322
0.0633616 0.042366039 1.1810001 656913
0.06748572 0.042740956 1.1810001 199195
0.070860006 0.041616194 1.1810001 591904
-0.02249524 0.047240004 1.1810001 131331
-0.019120954 0.047240004 1.1810001 65794
0.062986672 0.046115242 1.1810001 330002
0.06748572 0.047240004 1.1810001 264234
0.070860006 0.047240004 1.1810001 263713
-0.02249524 0.051739052 1.1810001 65794
-0.017996192 0.051739052 1.1810001 65793
0.067860648 0.051364135 1.1810001 328730
0.071984768 0.051739052 1.1810001 198157
0.075359054 0.052863814 1.1810001 198403
-0.02249524 0.057362862 1.1810002 65799
-0.017996192 0.057362866 1.1810002 65794
0.068610482 0.0562381 1.1810001 198671
0.071984768 0.057362866 1.1810002 263947
0.077327386 0.057644054 1.1810001 198412
-0.02249524 0.062986672 1.1810001 65794
-0.017996192 0.062986672 1.1810001 65793
0.071984768 0.061861914 1.1810001 395282
0.078170955 0.062424295 1.1810001 197918
0.083232388 0.064111434 1.1810001 198413
-0.022120319 0.067860648 1.1810001 65797
-0.018371113 0.067110799 1.1810001 65794
0.07873334 0.06748572 1.1810001 198161
0.083232388 0.06748572 1.1810001 198923
-0.02249524 0.071984768 1.1810001 65815
0.07873334 0.071984768 1.1810001 198928
0.083232388 0.071984768 1.1810001 198666
0.086606674 0.07310953 1.1810001 198158
-0.02249524 0.077608578 1.1810002 131368
0.07873334 0.077608585 1.1810002 67087
0.083232388 0.077608578 1.1810002 132109
0.086606674 0.077608578 1.1810001 197907
-0.025869526 0.083232388 1.1810001 65794
-0.02249524 0.082107626 1.1810001 131342
0.07873334 0.083232388 1.1810001 328975
0.083232388 0.083232388 1.1810001 197643
0.087731436 0.083232388 1.1810001 132619
-0.026994288 0.087731436 1.1810001 65793
0.07873334 0.086606674 1.1810001 656154
0.083232388 0.087731436 1.1810001 262926
0.087731436 0.087731436 1.1810001 67078
-0.026994288 0.092230484 1.1810001 65793
0.08435715 0.091105722 1.1810001 132106
0.088106357 0.091855571 1.1810001 133128
-0.026994288 0.096729532 1.1810001 65795
0.088856198 0.096729532 1.1810001 461075
0.092605405 0.096354619 1.1810001 199949
-0.026431907 0.10291573 1.1810001 65794
0.088856205 0.10235335 1.1810001 132622
0.092230484 0.10235335 1.1810002 395278
0.09560477 0.10235334 1.1810001 264462
-0.026994288 0.10797715 1.1810001 65795
0.088856198 0.10910191 1.1810001 67337
0.092230484 0.10797715 1.1810001 263950
-0.026994288 0.1124762 1.1810001 65793
0.092605405 0.11210128 1.1810001 591885
0.096354619 0.11285113 1.1810001 394770
-0.030368574 0.11810001 1.1810001 65794
-0.02811905 0.11697525 1.1810001 65793
0.093355246 0.11697525 1.1810001 394764
0.096729532 0.11697525 1.1810001 197649
-0.030368574 0.12259907 1.1810001 65793
-0.02811905 0.12034953 1.1810001 65793
0.093355246 0.1214743 1.1810001 526864
0.096729532 0.12259907 1.1810002 263701
0.1006662 0.12316145 1.1810001 132625
-0.032618098 0.12822288 1.1810001 65795
0.093355246 0.12934764 1.1810001 68619
0.096729532 0.12822288 1.1810001 133654
0.10085367 0.12784797 1.1810001 133400
-0.032618098 0.13272193 1.1810001 65793
0.096729532 0.13272193 1.1810001 133407
0.10190344 0.13294689 1.1810001 395042
-0.037117146 0.13834573 1.1810001 65793
-0.03374286 0.13722098 1.1810001 65793
0.10280325 0.13699603 1.1810001 591888
-0.03374286 0.14172003 1.1810001 131329
0.10460287 0.14172003 1.1810001 199180
0.10685239 0.14284478 1.1810001 329233
-0.037117146 0.14846858 1.1810001 65793
-0.033967812 0.1468939 1.1810001 65795
0.10797715 0.1479062 1.1810001 461338
0.11135144 0.14959334 1.1810001 199697
-0.037117146 0.15296763 1.1810001 65793
-0.03374286 0.15296763 1.1810001 65793
0.10797715 0.15409239 1.1810001 330252
0.11210128 0.1525927 1.1810001 331019
0.11585049 0.15296763 1.1810001 331276
-0.037866987 0.15784161 1.1810001 65793
-0.034117781 0.15709177 1.1810001 65793
0.10760223 0.15784159 1.1810001 199188
0.11210128 0.15784159 1.1810001 395277
0.11585049 0.15634191 1.1810001 396552
-0.038616829 0.1615908 1.1810001 65793
0.10910191 0.16309048 1.1810001 198429
0.1124762 0.16196573 1.1810001 329999
0.11585049 0.16196573 1.1810001 395526
-0.041616194 0.16983907 1.1810001 131329
-0.03936667 0.16758955 1.1810001 65793
0.10797715 0.16646476 1.1810001 198426
0.11270116 0.16713963 1.1810001 460557
0.11641286 0.16815193 1.1810001 721926
-0.041616194 0.17321336 1.1810001 131329
0.11285113 0.17283845 1.1810001 198417
0.11660033 0.17358828 1.1810001 198421
-0.041616194 0.17658764 1.1810001 65793
0.11360096 0.17771241 1.1810001 133389
0.11697525 0.1777124 1.1810001 67856
-0.043865718 0.18221146 1.1810001 65793
0.11697525 0.18221146 1.1810001 132108
-0.046115242 0.18671051 1.1810001 65793
-0.043865718 0.18558574 1.1810001 66049
0.11360096 0.18671051 1.1810001 197889
0.11697525 0.18671051 1.1810001 132612
0.12034953 0.18671051 1.1810001 133643
-0.046115242 0.19120955 1.1810001 65796
0.11697525 0.19177192 1.1810001 132613
0.12259906 0.19233429 1.1810001 67856
0.12709811 0.19233429 1.1810001 2629705
0.11360096 0.19908287 1.1810001 198150
0.11697525 0.19795811 1.1810001 132613
0.12259907 0.1979581 1.1810002 67606
0.12822288 0.19908287 1.1810001 4281703
0.13159716 0.19908287 1.1810001 6845820
-0.048364766 0.20133239 1.1810001 65793
0.11360096 0.20245716 1.1810001 197386
0.11585049 0.20245716 1.1810001 198157
0.1214743 0.20133239 1.1810001 68372
-0.048364766 0.20808096 1.1810001 66049
0.1124762 0.20695621 1.1810001 131595
0.11585049 0.20695621 1.1810001 133131
0.12034953 0.20583144 1.1810001 69385
-0.051364135 0.21407971 1.1810001 65793
0.10910191 0.21033049 1.1810001 132105
0.11285113 0.21183018 1.1810001 197381
0.11735018 0.21183018 1.1810001 132618
0.1214743 0.21258001 1.1810001 67845
-0.051739052 0.21820384 1.1810001 65793
0.10910191 0.2193286 1.1810001 393732
0.1124762 0.21820383 1.1810001 655890
0.11697525 0.21707907 1.1810001 197383
0.1214743 0.21820384 1.1810001 133378
-0.055113338 0.22382765 1.1810001 65793
-0.051739052 0.22270289 1.1810001 65793
0.10910191 0.22270289 1.1810001 131847
0.1124762 0.22270289 1.1810001 132110
0.11660033 0.22232798 1.1810001 67080
0.1214743 0.22157812 1.1810001 131844
-0.055113338 0.22720194 1.1810001 65794
-0.051739052 0.22720192 1.1810001 65793
0.10910191 0.22720194 1.1810001 131845
0.1124762 0.22720194 1.1810001 66565
0.11660033 0.22757685 1.1810001 133123
0.12034953 0.22832669 1.1810001 133633
-0.055113338 0.23170099 1.1810001 65795
-0.051739052 0.23170099 1.1810001 65793
0.10835208 0.23207591 1.1810001 132613
0.1124762 0.23170097 1.1810001 132617
0.11660033 0.23132607 1.1810001 132616
-0.055113338 0.23620003 1.1810001 65793
-0.051739048 0.2373248 1.1810002 65793
-0.048364766 0.23957431 1.1810001 65793
0.10835208 0.23582511 1.1810001 197897
0.1124762 0.2373248 1.1810002 262921
0.11697525 0.23732477 1.1810002 263171
0.12259906 0.23732479 1.1810001 199445
0.12709811 0.2373248 1.1810001 4088436
-0.051739052 0.24294859 1.1810001 65793
-0.047614925 0.24332353 1.1810001 65793
0.11135144 0.24182382 1.1810001 197645
0.11697525 0.24294859 1.1810001 199684
0.12259907 0.24294859 1.1810002 265238
0.12709811 0.24294859 1.1810001 3959922
-0.05061429 0.24632289 1.1810001 66049
-0.047240004 0.24744764 1.1810001 65793
0.11135144 0.24632289 1.1810001 197649
0.11735018 0.24707273 1.1810001 264456
0.12259907 0.2463229 1.1810001 266006
0.12709811 0.24632289 1.1810001 3893101
-0.043865718 0.25194669 1.1810001 65793
-0.051739052 0.25982004 1.1810001 65793
-0.046677627 0.2581329 1.1810001 65793
-0.051364135 0.26281941 1.1810001 65793
-0.046115242 0.26319432 1.1810001 65793
-0.05061429 0.26769334 1.1810001 66049
-0.046865087 0.26731843 1.1810001 65793
0.12484859 0.26881811 1.1810001 67903
-0.05061429 0.27106765 1.1810001 65793
-0.047240004 0.27106765 1.1810001 65793
-0.043865718 0.27331716 1.1810001 65793
-0.046115242 0.27781621 1.1810001 65793
-0.043865718 0.27669144 1.1810001 65793
-0.046115242 0.28231525 1.1810001 65793
-0.043865718 0.28006575 1.1810001 66049
0.12484859 0.28906384 1.1810001 66102
0.12709811 0.28906384 1.1810001 3625065
0.12372383 0.29243812 1.1810001 66331
0.12709811 0.29243812 1.1810001 3624810
-0.047614925 0.30256099 1.1810001 65793
-0.05061429 0.3081848 1.1810001 65793
-0.048364766 0.30706003 1.1810001 131329
-0.05061429 0.31268382 1.1810001 65793
-0.05061429 0.3160581 1.1810001 66049
-0.052863814 0.32280669 1.1810001 65793
-0.055113338 0.32955524 1.1810001 65793
-0.052863818 0.32730573 1.1810001 65793
-0.055113338 0.33180478 1.1810001 65793
-0.052863814 0.33405429 1.1810001 66050
-0.055113338 0.33855337 1.1810001 65795
-0.052863814 0.33742863 1.1810001 65795
-0.055113338 0.34192765 1.1810001 65795
-0.052863814 0.34080291 1.1810001 65795
-0.057362862 0.349801 1.1810001 65793
-0.038616829 0.34680164 1.1810001 65793
-0.032618098 0.34642673 1.1810001 65793
-0.057362862 0.35317528 1.1810001 65793
-0.03936667 0.35430005 1.1810001 65793
-0.057362862 0.3587991 1.1810001 65793
-0.052863814 0.3587991 1.1810001 66049
-0.047240004 0.3587991 1.1810001 66049
-0.042740956 0.3587991 1.1810001 65793
-0.03936667 0.35767433 1.1810001 65793
-0.0562381 0.36217335 1.1810001 65793
-0.051739052 0.36217335 1.1810001 65793
-0.047240004 0.36217335 1.1810001 131329
-0.042740956 0.36217338 1.1810001 65793
-0.03936667 0.36217338 1.1810001 65794
-0.0562381 0.3666724 1.1810001 65793
-0.051739052 0.3666724 1.1810001 65793
-0.047240004 0.3666724 1.1810001 65793
-0.042740956 0.3666724 1.1810001 65793
-0.03936667 0.3666724 1.1810001 65793
-0.055863183 0.37079656 1.1810001 65793
-0.051964004 0.37184635 1.1810001 65793
-0.047802381 0.37173384 1.1810001 65795
-0.042178579 0.37173384 1.1810001 65793
-0.046115242 0.37792003 1.1810001 65793
-0.043865718 0.37679526 1.1810001 65793
-0.047240004 0.38241908 1.1810001 65793
-0.043865718 0.38241908 1.1810001 65793
-0.047240004 0.38691813 1.1810001 65793
-0.043865718 0.38579336 1.1810001 65793
-0.0515141 0.39299187 1.1810001 65793
-0.048364766 0.39029241 1.1810001 65795
-0.055113338 0.3992905 1.1810001 65793
-0.051739052 0.39704099 1.1810001 66049
-0.055113338 0.40266478 1.1810001 65793
-0.055113338 0.40603909 1.1810001 66049
-0.057362862 0.41053814 1.1810001 65793
-0.60624671 0.41503716 1.1810001 197635
-0.60399723 0.41503716 1.1810001 197380
-0.059612386 0.41841143 1.1810001 65793
-0.061861914 0.42403525 1.1810001 65793
-0.059612386 0.42178574 1.1810001 65793
-0.066360958 0.4285343 1.1810001 65793
-0.064111434 0.42628479 1.1810001 65793
-0.068610482 0.43303338 1.1810001 65796
-0.633241 0.43753242 1.1810001 787206
-0.070860006 0.44315624 1.1810001 65793
-0.071984768 0.44765529 1.1810001 65793
-0.075359054 0.45215434 1.1810001 65793
-0.079858102 0.46452671 1.1810001 131330
-0.082107626 0.46790099 1.1810001 65793
-0.079858102 0.46790099 1.1810001 65793
-0.63774008 0.47240004 1.1810001 721923
-0.633241 0.47352481 1.1810001 919820
-0.083607309 0.47202513 1.1810001 131329
-0.08435715 0.47689909 1.1810001 65795
-0.65573627 0.4825229 1.1810001 131330
-0.61074579 0.48477241 1.1810001 656385
-0.60737145 0.48308527 1.1810001 328198
-0.60399723 0.48027337 1.1810001 196870
-0.087731443 0.4825229 1.1810002 327944
-0.61187053 0.48927146 1.1810001 722689
-0.60737145 0.48702195 1.1810001 524804
-0.092230484 0.48814672 1.1810001 1378561
-0.088856198 0.48702195 1.1810001 590337
-0.65123719 0.49377051 1.1810001 131585
-0.61299533 0.49377051 1.1810001 396289
-0.091105722 0.49264574 1.1810001 590852
-0.65198708 0.49751973 1.1810001 66052
-0.64786291 0.49826956 1.1810001 132609
-0.64448863 0.49826956 1.1810001 198401
-0.63998961 0.49602005 1.1810001 264197
-0.61299533 0.49602005 1.1810001 394754
-0.66023529 0.5005191 1.1810001 131330
-0.65686101 0.50276864 1.1810001 65796
-0.65348673 0.50276864 1.1810001 66051
-0.64673817 0.5016439 1.1810001 66818
-0.63998961 0.5005191 1.1810001 263437
-0.66698384 0.50951719 1.1810001 65794
-0.66248482 0.50951719 1.1810001 65793
-0.65723598 0.50801754 1.1810001 131330
-0.65348673 0.50951719 1.1810001 459266
-0.63211626 0.50726765 1.1810001 528386
-0.66848361 0.5125165 1.1810001 65794
-0.66136003 0.51289141 1.1810001 65794
-0.65648615 0.5125165 1.1810001 66053
-0.6527369 0.5125165 1.1810001 197122
-0.64898771 0.51176667 1.1810001 66305
-0.66810858 0.51626575 1.1810001 65793
-0.66248482 0.51739061 1.1810002 65794
-0.65686101 0.51739055 1.1810001 65804
-0.6527369 0.51701558 1.1810001 131589
-0.63624042 0.51701558 1.1810001 853000
-0.633241 0.51851529 1.1810001 658183
-0.66203493 0.52166462 1.1810001 65793
-0.65648615 0.52226448 1.1810001 262657
-0.633241 0.52188957 1.1810001 1051146
-0.62761724 0.52076477 1.1810001 790037
-0.60849625 0.52301431 1.1810001 198149
-0.65648615 0.52601373 1.1810001 131333
-0.65348673 0.52751338 1.1810001 262661
-0.63774008 0.52526385 1.1810001 525327
-0.63211626 0.52751338 1.1810002 462594
-0.62817961 0.52695096 1.1810001 528387
-0.60849625 0.52751338 1.1810001 67073
0.023700003 -0.16138572 1.1850001 3873575
0.023779999 -0.15740097 1.189 4071201
0.022221906 -0.15102129 1.1863334 3545646
0.022246033 -0.14742064 1.1876668 3544120
0.019185714 -0.14107144 1.1850001 3018022
0.021515237 -0.14268 1.189 3806508
0.019185714 -0.13768572 1.1850001 3150893
0.021515237 -0.13815048 1.189 4007729
0.01865381 -0.13226572 1.187 4075030
0.022647619 -0.13248858 1.1890001 4798501
0.02695067 -0.13203563 1.189 5060911
0.031329207 -0.13173366 1.189 5258803
-0.016985714 -0.12795904 1.189 656643
-0.012444763 -0.12706317 1.1876668 1050373
0.012414287 -0.12640001 1.1850001 3549227
0.017857334 -0.12724781 1.1866001 4730405
0.022647619 -0.12682667 1.189 5125939
0.027155239 -0.12672096 1.1880001 5125424
0.030574286 -0.12682667 1.189 5124639
-0.010191428 -0.12342952 1.189 1115920
-0.0079133324 -0.12208953 1.187 1049345
0.0033857145 -0.12075715 1.1850001 1377541
0.007147619 -0.12150954 1.1850002 2233622
0.012414287 -0.12188572 1.1850001 3417639
0.018073333 -0.12198763 1.1860001 4599336
0.022647619 -0.12229715 1.189 5125179
0.027177144 -0.12229715 1.189 5453368
0.030574286 -0.12342952 1.189 5126703
-0.0064104758 -0.11801174 1.1876668 1115393
-0.0022609525 -0.11756762 1.187 1377793
0.0026333337 -0.11699525 1.1850002 1968132
0.0071565076 -0.11712604 1.1863334 2493961
0.012429524 -0.11750223 1.1863334 3153166
0.018103808 -0.11766762 1.1880001 3811109
0.022647619 -0.11776762 1.189 4402993
0.027177144 -0.11776762 1.189 4928824
0.030574286 -0.11663524 1.189 5060665
-0.0018873017 -0.11361556 1.189 1509121
0.0022638093 -0.11314191 1.1880001 1904132
0.006794285 -0.1132381 1.189 2625802
0.012414287 -0.11285715 1.1850001 3282692
0.018118095 -0.1132381 1.189 3743254
0.022647617 -0.1132381 1.189 3810085
0.026044762 -0.1132381 1.189 4270895
0.0028309522 -0.10814238 1.189 1575683
0.006794285 -0.10757618 1.1890001 2363908
0.012451534 -0.10753514 1.1885556 3480580
0.018308762 -0.10781047 1.1866001 3547165
0.022874096 -0.10802915 1.189 3546908
0.02695067 -0.10802915 1.189 3744014
0.0056619048 -0.10304666 1.189 1117441
0.01245619 -0.10191429 1.1890001 1970179
0.017868761 -0.10245352 1.1874 2627098
0.018118095 -0.098517142 1.189 1707791
0.026044762 -0.021515237 1.189 132129
0.032839045 -0.021515237 1.189 67344
0.037934761 -0.022081427 1.189 133152
0.043030478 -0.021515237 1.189 133660
0.047559999 -0.021515237 1.189 134688
0.0079266662 -0.016985714 1.189 133399
0.012909143 -0.017891619 1.189 329231
0.018118095 -0.018118095 1.189 66860
0.022629522 -0.018103808 1.1880001 131883
0.027131431 -0.018089524 1.187 66840
0.032362476 -0.01788019 1.1882 67088
0.037743047 -0.018308762 1.1866001 198180
0.042958096 -0.018089524 1.187 198944
0.04752095 -0.018103808 1.188 134434
-0.0056619048 -0.01132381 1.189 132643
-0.0020382858 -0.012003238 1.189 132629
0.0022647618 -0.01245619 1.1890001 133139
0.0067898408 -0.012450477 1.1883335 133147
0.012428255 -0.012430795 1.1863334 197648
0.018067937 -0.012422541 1.1856668 132394
0.022797143 -0.012865715 1.1850001 131878
0.027085714 -0.013542857 1.1850001 131860
0.032728571 -0.012414287 1.1850001 67096
0.038145717 -0.012865715 1.1850001 66608
0.042885717 -0.012414287 1.1850001 67622
0.047400005 -0.012414287 1.1850001 134189
0.050957143 -0.012456192 1.189 264735
-0.0064104758 -0.0064104758 1.1876668 67090
-0.0022638093 -0.0067895236 1.188 67592
0.0022609525 -0.0067847618 1.187 133130
0.0067714285 -0.0067714285 1.1850001 132880
0.010157144 -0.0078999996 1.1850001 329996
0.042885717 -0.0078999996 1.1850001 134184
0.047400005 -0.0078999996 1.1850001 134185
0.052046664 -0.0067895236 1.1880001 134177
0.055486668 -0.0056619048 1.189 329769
-0.010191428 -0.0011323809 1.189 65798
-0.0064104758 -0.0018860316 1.1876668 66311
-0.0022609525 -0.002262857 1.187 66051
0.0022580954 -0.00226 1.186 66053
0.0067714285 -0.0022571429 1.1850001 131844
0.010909526 -0.0018809525 1.1850002 66306
0.048528574 -0.0011285715 1.1850001 66571
0.052003812 -0.0022609523 1.187 131854
0.055486668 -0.0022647618 1.189 328471
-0.010191428 0.0022647618 1.189 66054
-0.0067895232 0.0022619048 1.1880001 66312
-0.0022609523 0.0022590477 1.187 196866
0.0022580952 0.0022580954 1.186 65795
0.0067714285 0.0022571429 1.1850001 65793
0.010157144 0.0022571429 1.1850001 65793
0.05191429 0.0022571429 1.1850001 263177
0.056572381 0.0022619048 1.1880001 197126
0.060016192 0.0033971427 1.189 131845
-0.010191428 0.0067942855 1.189 66312
-0.0067847613 0.0067828568 1.187 66827
-0.0022571429 0.0067714285 1.1850001 525584
0.0022571429 0.0067714285 1.1850001 262920
0.0067714285 0.0067714285 1.1850001 66310
0.010909526 0.0063952385 1.1850002 66052
0.048528574 0.0056428574 1.1850001 68380
0.05191429 0.0067714285 1.1850001 659238
0.056525715 0.0067828568 1.187 330254
0.060771119 0.0071717459 1.189 198682
-0.011701271 0.013211112 1.1890001 393732
-0.0073423805 0.011858572 1.186 197131
-0.0028214287 0.011850001 1.1850001 329753
0.0022571429 0.010157144 1.1850001 329997
0.010157144 0.010157144 1.1850001 198148
0.048528574 0.012414287 1.1850002 66320
0.05191429 0.012414286 1.1850001 197910
0.057557147 0.012414288 1.1850001 132881
0.063342229 0.012439683 1.1876667 264734
0.067565396 0.013966031 1.189 395799
-0.01245619 0.018118095 1.1890001 197380
-0.0078999996 0.018057143 1.1850001 197377
0.053042859 0.016928572 1.1850001 197123
0.057557147 0.016928572 1.1850002 66307
0.063200004 0.018057143 1.1850001 198406
0.067886665 0.018101905 1.1880001 198669
0.071339995 0.019250475 1.189 134165
-0.012437779 0.022608889 1.187 131336
-0.0078999996 0.021442859 1.1850001 66305
0.063576192 0.022947622 1.1850002 132356
0.067714289 0.02257143 1.1850001 263946
0.072412379 0.022627618 1.1880001 461343
0.075869523 0.021515237 1.189 395299
-0.016985714 0.028309524 1.189 131586
-0.012875619 0.026877526 1.1858 197125
0.063200004 0.025957143 1.1850001 132355
0.067714289 0.027085714 1.1850001 132359
0.072350472 0.027129523 1.187 263435
0.075869523 0.028309524 1.189 198158
-0.022063334 0.032809522 1.1880001 262415
-0.018067937 0.032745712 1.1856667 65797
-0.014671429 0.031599998 1.1850001 66056
0.067714289 0.032728575 1.1850001 461329
0.072228573 0.032728575 1.1850001 198671
0.075869523 0.031706665 1.189 198158
-0.026589049 0.037901428 1.1880001 66058
-0.023155715 0.037272383 1.186 131602
-0.019185714 0.03724286 1.1850001 65806
0.068842858 0.03724286 1.1850001 266011
0.072228573 0.038371429 1.1850001 330026
0.076435715 0.03736857 1.189 328734
-0.031706665 0.044162858 1.189 65796
-0.027109524 0.042920955 1.186 65803
-0.023700003 0.041757144 1.1850001 65802
0.072604768 0.043261908 1.1850002 394518
0.076938093 0.042993333 1.188 263191
-0.031706665 0.047559999 1.189 65793
-0.027085714 0.047400001 1.1850001 65795
0.073357143 0.047400005 1.1850001 263697
0.076874286 0.047480002 1.187 263693
0.081153959 0.04793746 1.189 198159
-0.035103809 0.050957143 1.189 66049
-0.031680953 0.052046664 1.1880001 65793
-0.027085714 0.05191429 1.1850001 65794
0.077206671 0.051595241 1.1863334 198148
0.082618728 0.052059688 1.1883334 198406
-0.035103809 0.055486668 1.189 65793
-0.031680953 0.056572381 1.1880001 65793
-0.027085718 0.057557147 1.1850001 65802
0.083030619 0.057234693 1.1850001 132104
0.087193333 0.056619048 1.189 66835
-0.035103809 0.062280957 1.189 65793
-0.031672381 0.062209852 1.1876667 65793
-0.027085714 0.063200004 1.1850001 65793
0.083514288 0.062071431 1.1850001 198160
0.088227928 0.062209845 1.1876668 197903
0.091722853 0.063413337 1.189 198934
-0.031680949 0.067884758 1.188 65795
-0.027085716 0.067714289 1.1850001 65794
-0.023700003 0.066585712 1.1850001 65794
0.088103816 0.067770474 1.186 68104
0.092477784 0.068320319 1.189 67865
-0.035103809 0.073604763 1.189 65793
-0.031599998 0.072228573 1.1850001 65794
-0.027085716 0.072228573 1.1850001 65796
0.088404775 0.071852386 1.1850002 133654
0.092778102 0.072410472 1.188 264742
0.096252382 0.072472379 1.189 460317
-0.041898094 0.078134283 1.189 65795
-0.036236189 0.077001899 1.189 65794
-0.031599998 0.076742858 1.1850001 65795
-0.027085716 0.076742865 1.1850001 65802
0.089157149 0.076742858 1.1850001 263442
0.092778094 0.076936185 1.1880001 329491
0.096252382 0.078134283 1.189 198159
-0.042803999 0.083116762 1.189 65796
-0.037085477 0.082946897 1.189 65796
-0.031599998 0.082385719 1.1850001 65794
-0.027650001 0.081821434 1.1850001 65793
0.089157149 0.080128573 1.1850001 263445
0.092699692 0.082522228 1.187 198670
0.096252382 0.084928572 1.189 264201
-0.044162858 0.088325709 1.189 66051
-0.036915619 0.088552192 1.189 65794
-0.031599998 0.08802858 1.1850001 65793
0.092542864 0.08802858 1.1850001 68112
0.097007304 0.088703178 1.189 133130
-0.035858732 0.092477784 1.189 65793
-0.031599998 0.092542864 1.1850001 65793
0.092542864 0.092542864 1.1850001 67852
0.097222865 0.092699051 1.187 67846
0.1007819 0.092855237 1.189 132612
-0.035858732 0.097007304 1.189 65793
-0.031599998 0.097057149 1.1850001 65798
0.091414295 0.098185718 1.1850001 199182
0.097057149 0.097057149 1.1850001 133645
0.1007819 0.097384766 1.189 132371
-0.035858732 0.10229175 1.189 65793
-0.031599998 0.10270001 1.1850001 65794
-0.028214287 0.10157143 1.1850001 65794
0.097282864 0.10270001 1.1850001 133136
0.10148438 0.10238571 1.1866001 67603
-0.036462665 0.10712325 1.189 65795
-0.032277144 0.10856857 1.1850001 65794
0.097057149 0.10834286 1.1850001 198935
0.10214076 0.10802915 1.189 198677
0.10531144 0.10757619 1.189 329744
-0.041898094 0.11437048 1.189 65796
-0.03850095 0.1132381 1.189 65794
-0.032728571 0.11285715 1.1850001 65793
0.098185718 0.11172857 1.1850001 199188
0.10174476 0.11304762 1.187 657427
0.10531143 0.1132381 1.189 526603
-0.050957143 0.11776762 1.189 131585
-0.047480002 0.11756762 1.187 65793
-0.043030474 0.11776762 1.189 65796
-0.038438097 0.11756953 1.187 65799
-0.033179998 0.11714572 1.1850001 65793
0.10174476 0.11756953 1.187 264219
0.10531143 0.11776762 1.189 263973
-0.056619048 0.12229714 1.189 66050
-0.052003808 0.12209143 1.187 66306
-0.047400001 0.12188572 1.1850001 66049
-0.042993337 0.12219524 1.1880001 65795
-0.038404763 0.12198953 1.186 65797
-0.033857144 0.12188572 1.1850001 65793
0.1027 0.12188572 1.1850001 133908
0.10644381 0.12229714 1.189 199955
-0.060016192 0.12795904 1.189 66058
-0.056619048 0.12682667 1.189 131591
-0.052003808 0.12661332 1.187 66053
-0.047559999 0.12682667 1.189 65793
-0.043030474 0.12682667 1.189 65799
-0.038393654 0.12759905 1.1856667 65800
-0.034421429 0.12696429 1.1850001 65793
0.10439287 0.12809286 1.1850001 198942
0.10870858 0.12682666 1.189 395545
-0.052089524 0.13022381 1.189 66049
-0.047559999 0.13022381 1.189 65793
-0.042464286 0.13192238 1.189 65794
-0.038438097 0.13339619 1.187 65794
-0.034985714 0.13317144 1.1850001 65793
0.10495715 0.13204286 1.1850001 264476
0.10858794 0.13233875 1.1876668 396059
-0.041898094 0.13815048 1.189 65793
-0.038792066 0.13746318 1.1863334 65793
-0.034985714 0.13655715 1.1850001 65793
0.10843524 0.13780096 1.186 462868
0.11210571 0.13928285 1.189 593433
-0.042653017 0.14305747 1.189 65793
-0.038371429 0.14220001 1.1850001 65793
0.10871905 0.14182383 1.1850002 330515
0.11273491 0.14289621 1.1876668 265488
-0.047559999 0.14834191 1.189 65793
-0.042995237 0.14708476 1.1880001 65793
-0.03874762 0.14633811 1.1850002 65793
0.10947143 0.14558572 1.1850001 200735
0.11260667 0.14725429 1.1863334 199694
0.11663524 0.14834191 1.189 460810
-0.046427619 0.15173906 1.189 65793
-0.042885717 0.15235716 1.1850001 65793
-0.039500006 0.15235715 1.1850002 65793
0.11398572 0.15235715 1.1850001 331015
0.11624286 0.15010001 1.1850001 330764
0.12116476 0.15287143 1.189 201752
-0.047302287 0.15729354 1.1882 65793
-0.042885717 0.15800001 1.1850001 65793
-0.039500002 0.15687144 1.1850001 65793
0.11437048 0.15740095 1.189 396041
0.11823571 0.15783286 1.1880001 330760
0.12116476 0.1551362 1.189 135956
-0.047130477 0.16250382 1.1876668 65795
-0.042885713 0.1625143 1.1850001 65793
0.1185 0.1625143 1.1850001 329987
-0.046427619 0.16759238 1.189 65793
-0.042885713 0.16702858 1.1850001 66049
0.1185 0.16702858 1.1850001 525831
0.12116476 0.16759238 1.189 68114
-0.046427619 0.17212191 1.189 65793
-0.04401429 0.17267144 1.1850002 65793
0.1185 0.17267144 1.1850001 197901
0.12102889 0.17305747 1.1876668 68117
-0.046427619 0.17665143 1.189 65793
-0.04401429 0.1783143 1.1850001 65793
0.12209333 0.17748287 1.187 264988
-0.046915717 0.18257096 1.187 65793
0.12227754 0.18239525 1.1866001 395546
0.12682667 0.18344572 1.189 923144
-0.050957143 0.18910763 1.189 65793
-0.048528574 0.18734287 1.1850001 65793
0.12301429 0.18734287 1.1850001 134674
0.12661523 0.18765905 1.187 986900
-0.051712066 0.19288222 1.189 65796
-0.048528574 0.19185716 1.1850001 66055
0.12978572 0.19072859 1.1850001 5071961
0.13285238 0.19260249 1.1882001 6976632
-0.055486668 0.1970343 1.189 65793
-0.051760193 0.19731373 1.1866001 66049
-0.048528574 0.19750002 1.1850002 65794
0.13192238 0.19760048 1.189 6452082
-0.056052856 0.20326239 1.189 65793
-0.052175809 0.20260058 1.1858 65793
0.13475333 0.20043144 1.189 8024960
-0.056619048 0.20835808 1.189 65793
-0.05191429 0.20765714 1.1850001 65793
-0.056572381 0.21270761 1.188 65793
-0.052290481 0.21179526 1.1850002 65793
0.12075715 0.21104287 1.1850001 67594
0.12795904 0.21402 1.189 3885405
0.13022381 0.21402 1.189 7765865
-0.060771119 0.2177946 1.189 65793
-0.056428574 0.21668571 1.1850001 65793
0.12301429 0.21555714 1.1850001 67587
0.12716325 0.21705694 1.1858001 3096663
0.13022381 0.21628475 1.189 7702640
-0.062280957 0.22194666 1.189 65793
-0.057839282 0.22204642 1.1850001 65793
0.1185 0.22458573 1.1850001 132614
0.12188572 0.22458573 1.1850001 133384
0.12795904 0.22194666 1.189 3825018
0.13022381 0.22194666 1.189 7637364
-0.063144952 0.22790685 1.1882001 65793
-0.058685713 0.22797143 1.1850001 65795
0.1185 0.22684287 1.1850001 198403
0.12226191 0.22759525 1.1850002 199171
0.1267979 0.22759905 1.1866001 2377053
0.13022381 0.22760856 1.189 7763822
-0.063360952 0.23307334 1.1880001 262401
-0.058685713 0.23248574 1.1850001 65796
0.1185 0.2336143 1.1850001 198154
0.12150954 0.23286192 1.1850002 132869
-0.063308574 0.23740001 1.187 65793
-0.058685713 0.23700002 1.1850001 65793
-0.063236199 0.24277811 1.1856667 65794
-0.057557147 0.24264288 1.1850001 65793
-0.066660635 0.24743271 1.1863334 65795
-0.063200004 0.24828573 1.1850001 65793
-0.057557147 0.24828574 1.1850001 65793
-0.052290481 0.24866192 1.1850002 65793
-0.066810474 0.25365335 1.189 65793
-0.063200004 0.25279999 1.1850001 65793
-0.057557147 0.25280002 1.1850001 65793
-0.05191429 0.25279999 1.1850001 65793
-0.047400005 0.25279999 1.1850001 65793
-0.066810474 0.25818288 1.189 65793
-0.063360952 0.2579667 1.1880001 65793
-0.057557143 0.25731432 1.1850001 65793
-0.05191429 0.25731432 1.1850001 65793
-0.048528574 0.25731432 1.1850001 65793
-0.062733911 0.26293883 1.189 65793
-0.057105716 0.26160288 1.1850001 65793
-0.048528574 0.26295716 1.1850001 65793
-0.062280953 0.26724193 1.1890001 65793
-0.056428574 0.26747146 1.1850001 65793
-0.053042859 0.26747146 1.1850002 65793
-0.048528574 0.26747143 1.1850001 65793
-0.062733911 0.27154496 1.189 65794
-0.057557143 0.27311432 1.1850001 65793
-0.052290481 0.27349052 1.1850002 65793
-0.047400005 0.27424288 1.1850001 65793
-0.061375052 0.2778863 1.189 65793
-0.056572381 0.27833238 1.1880001 65793
-0.051959049 0.27786192 1.186 65793
-0.047776192 0.27725241 1.1850002 65793
-0.061148576 0.28309524 1.189 65793
-0.056619048 0.28309524 1.189 65793
-0.052046668 0.2828581 1.188 65793
-0.048528574 0.28214288 1.1850001 65793
-0.061148576 0.28762478 1.189 65793
-0.056619048 0.28762478 1.189 65793
-0.052089524 0.28762478 1.189 65793
-0.047830798 0.28735715 1.1863334 65793
-0.060016192 0.29328665 1.189 65793
-0.056619048 0.29328665 1.189 65793
-0.052089524 0.29215428 1.189 65793
-0.04723981 0.29224175 1.1866001 65793
-0.052089524 0.29668382 1.189 65793
-0.047691241 0.29766497 1.1866001 65793
-0.055486668 0.30121332 1.189 65793
-0.052060954 0.30217493 1.1883335 65793
-0.048528574 0.3013286 1.1850001 65793
-0.055486668 0.3080076 1.189 65793
-0.052290481 0.30659527 1.1850002 65793
-0.055486668 0.31253713 1.189 65793
-0.053042859 0.31261432 1.1850002 66305
-0.053042859 0.31825715 1.1850001 65793
-0.055486672 0.32272857 1.189 65794
-0.053042859 0.32164285 1.1850001 65793
-0.056179367 0.32839841 1.1876668 65793
-0.6318686 0.33405238 1.189 460034
-0.057557143 0.33179998 1.1850001 65793
-0.64206004 0.33631712 1.189 131610
-0.63753045 0.33688331 1.189 328457
-0.63224602 0.33707207 1.189 525571
-0.62847143 0.33744952 1.189 787462
-0.056654286 0.33699146 1.1850001 65794
-0.63677555 0.34160158 1.189 132100
-0.63300097 0.34197903 1.189 394497
-0.62847143 0.34084666 1.189 591880
-0.057557143 0.34308571 1.1850001 65796
-0.64885426 0.34764096 1.189 66049
-0.63639808 0.34764096 1.1890001 131841
-0.63186854 0.34764096 1.1890001 394497
-0.62847149 0.34764096 1.189 264450
-0.060016192 0.3499057 1.189 65793
-0.057557143 0.34759998 1.1850001 65793
-0.6318686 0.35217047 1.189 394498
-0.62696165 0.35292539 1.189 330500
-0.6239419 0.35443524 1.189 396807
-0.062280957 0.35443524 1.189 65794
-0.059814289 0.35211432 1.1850001 65793
-0.62696165 0.35820985 1.189 460805
-0.6239419 0.35783237 1.189 396041
-0.062280957 0.35783237 1.189 65794
-0.059814289 0.3566286 1.1850001 65793
-0.62733907 0.36122954 1.189 787457
-0.062211119 0.36308414 1.1876668 65793
-0.059814289 0.36227143 1.1850002 65793
-0.64206004 0.36802381 1.189 262933
-0.63753051 0.36802381 1.189 328198
-0.062896192 0.36795086 1.1863334 65793
-0.059814289 0.36791432 1.1850001 65793
-0.64772189 0.37368572 1.189 65794
-0.64281499 0.37179846 1.189 262662
-0.63753045 0.37255335 1.189 328457
-0.066810474 0.37368572 1.189 65793
-0.063469149 0.37200058 1.1858001 65793
-0.059061907 0.37280482 1.1850002 65793
-0.046271432 0.37355715 1.1850001 65795
-0.04401429 0.37355715 1.1850001 65793
-0.64772189 0.37821525 1.189 65795
-0.64206004 0.37821525 1.189 459524
-0.63753051 0.37821525 1.1890001 459783
-0.066810474 0.37821525 1.189 65793
-0.063200004 0.37694287 1.1850001 65793
-0.057557147 0.37694287 1.1850001 65793
-0.051538102 0.37731907 1.1850002 65793
-0.047400005 0.37694287 1.1850001 65793
-0.04401429 0.37581429 1.1850001 65793
-0.64734447 0.38236731 1.189 65795
-0.64281499 0.38236731 1.189 131597
-0.63753051 0.38274479 1.1890001 132614
-0.63300097 0.38161236 1.189 199172
-0.071724281 0.38347095 1.186 1181446
-0.067791745 0.38301492 1.1863334 65794
-0.063200012 0.38258576 1.1850001 65793
-0.057557147 0.38258576 1.1850001 65793
-0.05191429 0.38258573 1.1850001 65793
-0.048528574 0.3803286 1.1850001 66049
-0.64281499 0.38765174 1.189 327943
-0.63753051 0.38727427 1.1890001 263175
-0.072228573 0.38822857 1.1850001 1510666
-0.067826666 0.38775334 1.187 65796
-0.063308574 0.38775334 1.187 65793
-0.057105716 0.38800287 1.1850001 65793
-0.05191429 0.3882286 1.1850001 65793
-0.65187401 0.39218128 1.189 65799
-0.64772189 0.3918038 1.189 65794
-0.64281499 0.39142632 1.189 131330
-0.63753051 0.39180383 1.1890001 198146
-0.6318686 0.3929362 1.189 264962
-0.62847143 0.3929362 1.189 395527
-0.072228573 0.39161429 1.1850001 1051651
-0.067942858 0.3918038 1.189 65795
-0.062280953 0.39180383 1.1890001 65793
-0.056477144 0.39307335 1.186 65793
-0.053042859 0.39161429 1.1850001 65793
-0.65225142 0.39746571 1.1890001 65803
-0.64794838 0.39791867 1.189 66053
-0.64319241 0.39746571 1.1890001 262658
-0.63781357 0.39746571 1.189 263685
-0.63300097 0.39746571 1.189 199429
-0.072245903 0.39701277 1.189 459780
-0.067942858 0.39746571 1.1890001 65793
-0.06225102 0.39695117 1.1884286 65793
-0.05710572 0.39703146 1.1850001 65793
-0.65564859 0.40199524 1.189 131334
-0.65225142 0.40312761 1.189 131340
-0.64772189 0.40312761 1.189 65799
-0.64319241 0.40312761 1.189 197379
-0.63753051 0.40312761 1.1890001 394249
-0.63300097 0.40312761 1.189 722443
-0.075869523 0.40425998 1.189 852232
-0.071339995 0.40425998 1.189 196866
-0.067942858 0.40312761 1.189 65793
-0.062280953 0.40312761 1.189 65793
-0.058309525 0.40214762 1.1850002 65793
-0.65640354 0.40803462 1.189 65796
-0.6526289 0.40803462 1.189 65796
-0.64772189 0.40765715 1.189 65800
-0.64281499 0.40803462 1.189 132101
-0.63753051 0.40765715 1.1890001 394754
-0.63300097 0.40765715 1.189 656644
-0.077379361 0.4072797 1.189 789511
-0.071339995 0.40652478 1.189 131329
-0.067942858 0.40765715 1.189 65793
-0.063035876 0.40803462 1.189 65793
-0.058685716 0.40741432 1.1850001 65793
-0.66017812 0.41331905 1.189 131345
-0.65678096 0.41218668 1.189 131335
-0.65225142 0.41218668 1.189 65801
-0.64772189 0.41218668 1.189 65813
-0.64319241 0.41218668 1.189 131851
-0.63809669 0.41275284 1.189 721923
-0.63224608 0.41256413 1.189 591619
-0.60717142 0.41418573 1.1850001 328708
-0.078134283 0.41105428 1.189 590604
-0.066810474 0.41105428 1.189 65793
-0.063035876 0.41180921 1.189 66049
-0.059814289 0.41305715 1.1850001 65793
-0.66198993 0.41694266 1.189 65800
-0.65678096 0.41671619 1.189 131331
-0.65225142 0.41671619 1.189 65797
-0.64796323 0.41711298 1.1882001 65798
-0.64302272 0.41700211 1.1866001 131589
-0.63758588 0.41714343 1.1870002 262913
-0.63191247 0.41737747 1.1876667 329986
-0.62733907 0.41671619 1.189 396295
-0.61158764 0.41601336 1.187 590850
-0.071339995 0.41784856 1.189 65793
-0.067942858 0.41671619 1.189 65793
-0.06310305 0.41683182 1.1874001 65793
-0.059814289 0.41644287 1.1850001 65793
-0.66697234 0.42464286 1.189 65801
-0.66244286 0.42237809 1.189 65795
-0.65678096 0.42237812 1.1890001 327937
-0.65338385 0.42237812 1.189 131329
-0.64813781 0.42204258 1.187 196866
-0.64290953 0.42246196 1.1850002 131329
-0.6382246 0.42273754 1.1872858 460289
-0.63188982 0.42289492 1.1883335 527621
-0.62790525 0.42237809 1.189 724237
-0.61261809 0.42011338 1.189 394497
-0.60808855 0.42011335 1.189 197381
-0.078134283 0.42124572 1.189 131329
-0.072472379 0.42011335 1.189 65793
-0.067942858 0.42237812 1.1890001 65793
-0.063469149 0.42169127 1.1858001 65793
-0.66697234 0.42804 1.189 65795
-0.66244292 0.42804003 1.1890001 65799
-0.65678096 0.42804 1.189 131333
-0.65228474 0.4273181 1.187 65794
-0.64780009 0.42772862 1.1850001 66305
-0.64328575 0.42772862 1.1850001 67073
-0.63740522 0.42787299 1.1854001 722945
-0.63212061 0.4275263 1.1882001 724993
-0.62847143 0.42804 1.189 986369
-0.071339995 0.4291724 1.189 65793
-0.068031423 0.42785165 1.1866001 65793
-0.064328574 0.42547145 1.1850001 65793
-0.66697234 0.43143713 1.189 65793
-0.66357523 0.4325695 1.189 65794
-0.65678096 0.43143713 1.189 65796
-0.6526289 0.43294701 1.189 65793
-0.64667147 0.43337145 1.1850001 131329
-0.64366192 0.43299526 1.1850002 131585
-0.63664126 0.43298113 1.1861428 395011
-0.6318686 0.4325695 1.189 723978
-0.62771654 0.43294701 1.189 1117193
-0.071339995 0.4337019 1.189 65793
-0.068842858 0.43224287 1.1850001 65793
-0.66697234 0.43596667 1.189 131330
-0.66289586 0.43687257 1.189 65794
-0.65225142 0.43709907 1.189 65793
-0.64667147 0.43675718 1.1850001 196865
-0.64359975 0.43736133 1.1876668 196867
-0.63716745 0.43750197 1.1858 591620
-0.63195622 0.4376235 1.1863334 854790
-0.62733907 0.43709904 1.189 1313540
-0.071180001 0.43724605 1.1863334 65794
-0.66244286 0.44162858 1.189 66055
-0.65187401 0.44125113 1.189 65793
-0.64809936 0.44200605 1.189 196867
-0.64435464 0.44226193 1.1876668 327941
-0.63764286 0.44240007 1.1850001 459277
-0.6315788 0.4421429 1.1863334 854292
-0.62771654 0.44200605 1.189 854537
-0.61148572 0.44276097 1.189 590338
-0.60808855 0.44276097 1.189 262401
-0.07235238 0.44088382 1.187 65794
-0.66153699 0.44683751 1.189 65798
-0.65678096 0.44729048 1.1890001 65795
-0.65202492 0.44774342 1.189 196865
-0.64885426 0.44729051 1.189 393475
-0.6439271 0.44683906 1.1866001 262410
-0.63764286 0.44691432 1.1850001 328468
-0.63145846 0.44707552 1.1867144 722451
-0.62733907 0.44729048 1.1890001 855049
-0.62318701 0.44804543 1.189 658439
-0.61148572 0.44502571 1.189 655873
-0.60808855 0.44502571 1.189 327937
-0.075869523 0.44955522 1.189 66049
-0.073522225 0.44678637 1.1876668 65793
-0.66131049 0.45295238 1.189 65796
-0.65678096 0.45295238 1.189 65797
-0.65170193 0.45257241 1.188 131586
-0.64885426 0.45295238 1.189 197121
-0.64372998 0.45321077 1.1867144 132099
-0.6372667 0.45180482 1.1850001 329220
-0.63168412 0.45265597 1.186 463112
-0.62738794 0.45357299 1.1876668 659970
-0.6239419 0.45295238 1.189 659458
-0.61148572 0.45295238 1.189 198657
-0.66697234 0.45748192 1.189 393474
-0.66198993 0.45770842 1.189 131329
-0.65678096 0.45748189 1.189 131329
-0.65159863 0.45754266 1.1874001 66305
-0.64778149 0.45801952 1.186 262915
-0.64287716 0.45796067 1.1863334 197893
-0.6382854 0.45785937 1.189 462083
-0.63174731 0.45828286 1.1858 332546
-0.62674844 0.45813853 1.1866001 660483
-0.6239419 0.45634952 1.189 659714
-0.61148572 0.45634952 1.189 132865
-0.078134283 0.45861429 1.189 65793
-0.66772735 0.46163398 1.189 131337
-0.66244698 0.46227306 1.1884286 196865
-0.65679383 0.46218622 1.1880001 196865
-0.65231431 0.46271431 1.1850001 131329
-0.64832526 0.46292907 1.187 131587
-0.64210856 0.46236289 1.187 263170
-0.63891029 0.4623777 1.1882 460550
-0.63200003 0.46271431 1.1850001 723716
-0.62748575 0.46271431 1.1850001 1050632
-0.61055714 0.4638429 1.1850001 197377
-0.60717142 0.4638429 1.1850001 197121
-0.081394285 0.46349335 1.187 65794
-0.078134283 0.46087906 1.189 65793
-0.67150193 0.46880573 1.189 65793
-0.66787833 0.4672204 1.189 65793
-0.66212344 0.46777213 1.1884286 131333
-0.65645242 0.46685243 1.1850002 393480
-0.65231431 0.46722862 1.1850001 196866
-0.64850163 0.46714765 1.1876668 66049
-0.64328575 0.46722859 1.1850001 132097
-0.63789785 0.46677357 1.1860001 460548
-0.6315788 0.46775433 1.1863334 723469
-0.62847143 0.46880573 1.189 920607
-0.61148572 0.4688057 1.189 131845
-0.60808855 0.46880573 1.189 131332
-0.087193333 0.46880573 1.189 131332
-0.083985716 0.46737689 1.1863334 131330
-0.67301178 0.47371274 1.189 196865
-0.66810477 0.47333527 1.189 65794
-0.66357523 0.47333524 1.189 65802
-0.65747797 0.4729248 1.1874001 131343
-0.65193814 0.4713667 1.1850002 65797
-0.64889145 0.47253907 1.187 131334
-0.64328575 0.47174287 1.1850001 197633
-0.63719147 0.47151718 1.1850001 330243
-0.63157874 0.47227368 1.1863334 527878
-0.62741435 0.47254097 1.187 725260
-0.08825238 0.47293621 1.1880001 590083
-0.084642865 0.47061431 1.1850001 65794
-0.6726343 0.47786477 1.189 393473
-0.66810811 0.47802618 1.1880001 196867
-0.66274738 0.47806883 1.186 131331
-0.65666002 0.47729242 1.1855714 327941
-0.65296781 0.47848019 1.1866001 131330
-0.6488989 0.4775773 1.1866001 131586
-0.64328569 0.47738576 1.1850001 263426
-0.63764286 0.47803068 1.1850001 461066
-0.63168406 0.47750551 1.1860001 463115
-0.62847143 0.47786474 1.189 661776
-0.61148572 0.47673237 1.189 131604
-0.60808855 0.47673237 1.189 196879
-0.088128895 0.47792161 1.1863334 459019
-0.67263383 0.48255193 1.188 131329
-0.6681143 0.48302856 1.1850001 131337
-0.66247147 0.48302859 1.1850001 65795
-0.65645242 0.4826524 1.1850002 131330
-0.65231431 0.48302859 1.1850001 131329
-0.64844745 0.48300058 1.1866001 131585
-0.64328575 0.48302859 1.1850001 197635
-0.63764286 0.48302859 1.1850001 395525
-0.6315788 0.48281714 1.1863334 397573
-0.62851906 0.48298192 1.1876668 464142
-0.61610949 0.4838419 1.187 526338
-0.61183143 0.4820962 1.1866001 198153
-0.60808855 0.48126191 1.189 131341
-0.09151715 0.4824397 1.1863334 1050886
-0.67150003 0.48641428 1.1850001 262401
-0.6681143 0.48754287 1.1850001 65794
-0.66247147 0.48731717 1.1850001 65793
-0.65682864 0.48754287 1.1850001 131329
-0.65231431 0.48754287 1.1850001 131585
-0.64780009 0.48754287 1.1850001 131841
-0.64328575 0.48754287 1.1850001 328454
-0.63764286 0.48754287 1.1850001 919051
-0.63228863 0.48750889 1.1876668 723978
-0.62771654 0.48654637 1.189 855843
-0.6216771 0.48579141 1.189 462084
-0.61651838 0.48771399 1.1863334 919297
-0.61281431 0.48867145 1.1850001 852737
-0.091414295 0.48754287 1.1850001 984833
-0.67225564 0.49147841 1.1863334 262401
-0.66867715 0.49247146 1.186 65793
-0.66279095 0.49180916 1.1855716 66049
-0.65682864 0.49205717 1.1850001 131585
-0.65286386 0.49247146 1.186 131585
-0.64780009 0.49205714 1.1850001 131842
-0.64328575 0.49205714 1.1850001 263171
-0.6368506 0.49223334 1.1863334 461319
-0.63300097 0.49032092 1.189 853507
-0.61832714 0.49273571 1.1880001 592897
-0.61281431 0.49318573 1.1850001 395265
-0.093671434 0.49092859 1.1850001 1576193
-0.67225623 0.49806762 1.1876668 65793
-0.66848862 0.49675524 1.1863334 65794
-0.6629684 0.49807248 1.185889 65795
-0.65720487 0.49694762 1.1850002 65800
-0.65118575 0.49657142 1.1850001 131841
-0.64780009 0.49657142 1.1850001 197890
-0.64351141 0.49770004 1.1850001 198149
-0.63721067 0.49779958 1.1857275 264966
-0.63300097 0.49824762 1.189 528392
-0.6179654 0.49881744 1.1876668 460546
-0.61168575 0.49657142 1.1850001 263169
-0.67240745 0.50311601 1.1882001 65794
-0.66848671 0.50334191 1.1876668 65794
-0.66472858 0.50334287 1.1850001 131329
-0.6370486 0.50320143 1.1860001 461592
-0.63224608 0.50315464 1.189 527896
-0.61827999 0.5027771 1.189 722179
-0.61375046 0.50164473 1.189 328449
-0.67225689 0.50768417 1.189 65794
-0.66773814 0.50823331 1.1850002 65793
-0.66472858 0.50785714 1.1850001 196865
-0.63530576 0.50711405 1.1876668 396570
-0.63087147 0.50785714 1.1850001 463892
-0.62861431 0.50785714 1.1850001 529419
-0.67263335 0.51097333 1.187 65795
-0.63532573 0.51210576 1.187 593411
-0.6318686 0.5129686 1.189 594179
-0.63607943 0.51624888 1.187 788998
-0.63174438 0.51732206 1.1878572 461826
-0.62771654 0.51900792 1.189 1182218
-0.63222575 0.52252865 1.1850001 1051656
-0.62708449 0.52282262 1.1856667 658971
-0.62306762 0.52258223 1.1882001 395794
-0.61763829 0.52348518 1.1882 329482
-0.61356324 0.52348518 1.1882001 198153
-0.62674844 0.52820438 1.1866001 593161
-0.62280953 0.52768952 1.189 396298
-0.61724186 0.5279305 1.187 330499
-0.61281431 0.52817142 1.1850001 198657
-0.63538575 0.53381431 1.1850001 986370
-0.63200003 0.53381431 1.1850001 593410
-0.62719983 0.53227335 1.1866001 724226
-0.62280953 0.53221905 1.189 395268
-0.6179654 0.5319984 1.1876668 395523
