# .PCD v0.7 - Point Cloud Data file format
VERSION 0.7
FIELDS x y z rgba
SIZE 4 4 4 4
TYPE F F F U
COUNT 1 1 1 1
WIDTH 1128
HEIGHT 1
VIEWPOINT 0 0 0 1 0 0 0
POINTS 1128
DATA ascii
0.2460357 0.10803073 -1.5454576 9391422
0.24517828 0.11189275 -1.5476025 9195328
0.24054274 0.072921842 -1.526951 3539716
0.23968536 0.076783866 -1.5290958 4261649
0.23927057 0.081046097 -1.5314234 5249307
0.23797053 0.08450786 -1.5333859 5774372
0.23933333 0.091536686 -1.5370713 7222814
0.23979694 0.095433779 -1.5391364 7879725
0.23937514 0.098530434 -1.5408365 8208446
0.2393961 0.10202726 -1.542719 8472902
0.24074492 0.10672481 -1.5451494 9392176
0.23945183 0.11135221 -1.5477394 9063979
0.2407937 0.11488415 -1.5495422 9130551
0.23528683 0.077444039 -1.5297805 4392967
0.23398679 0.08090581 -1.5317428 5182728
0.23401466 0.085568227 -1.534253 5971736
0.23404258 0.090230763 -1.5367631 6762776
0.23407045 0.094893239 -1.5392731 7616808
0.23409134 0.09839008 -1.5411558 8011068
0.23411226 0.10188698 -1.5430384 8340290
0.23413318 0.10538384 -1.544921 8733998
0.23416802 0.11121195 -1.5480586 9062936
0.23418897 0.11470877 -1.5499413 9064237
0.23002398 0.080800533 -1.5319823 5379592
0.23005185 0.08546301 -1.5344925 6168348
0.23007971 0.090125494 -1.5370026 6893086
0.23010761 0.094788037 -1.5395128 7615020
0.23012856 0.098284878 -1.5413953 8011841
0.23014945 0.10178172 -1.543278 8275273
0.22606114 0.080695324 -1.5322218 5973520
0.226089 0.0853578 -1.5347319 6498342
0.22611684 0.090020284 -1.5372421 7089704
0.22614479 0.094682761 -1.5397522 7682863
0.22616571 0.098179661 -1.5416348 8078402
0.22618657 0.1016765 -1.5435174 8275019
0.22577184 0.10593873 -1.545845 8537904
0.22491443 0.10980075 -1.5479898 8731940
0.2192263 0.042054459 -1.5119123 3015170
0.22121996 0.080955245 -1.5327237 6629914
0.2208052 0.085217521 -1.5350512 7155492
0.22083306 0.089880005 -1.5375613 7484203
0.22086096 0.094542466 -1.5400715 7944232
0.2209028 0.10153616 -1.5438368 8078122
0.2209307 0.10619869 -1.5463469 8406046
0.22095159 0.10969553 -1.5482293 8603668
0.21390763 0.036086068 -1.509094 5049354
0.21526343 0.04194925 -1.512152 4459266
0.21545866 0.074586593 -1.5297228 6763028
0.2154935 0.080414705 -1.5328604 7157019
0.2155214 0.085077174 -1.5353706 7551272
0.21554929 0.089739658 -1.5378808 7748907
0.21557719 0.094402127 -1.5403908 8010270
0.215619 0.10139587 -1.5441561 8144152
0.21565384 0.107224 -1.5472937 8538892
0.21567476 0.11072084 -1.5491763 8604426
0.21569568 0.11421774 -1.5510589 8670496
0.20978445 0.0091715679 -1.4949003 6039568
0.20860294 0.03244888 -1.5075308 6100241
0.20994478 0.035980858 -1.5093336 5707277
0.21128666 0.039512768 -1.5111363 5446147
0.21132153 0.045340881 -1.5142739 5447681
0.21002847 0.049968287 -1.5168639 5775617
0.20961374 0.054230571 -1.5191915 5972740
0.20875633 0.058092535 -1.5213364 6301456
0.20880511 0.066251919 -1.5257292 6762783
0.20882604 0.069748767 -1.5276117 7026468
0.21018183 0.075611949 -1.5306697 7092521
0.21020973 0.080274411 -1.5331798 7354669
0.2106756 0.084560037 -1.535454 7749184
0.21027249 0.090765007 -1.5388275 8076588
0.21029341 0.094261847 -1.5407102 8272666
0.21163523 0.097793825 -1.542513 8404758
0.21164918 0.10012504 -1.543768 8405281
0.21171191 0.11061562 -1.5494158 8669715
0.20292872 -0.032966133 -1.4727081 5643786
0.20294267 -0.030634925 -1.4739633 5708300
0.20429152 -0.025937378 -1.4763936 5711619
0.20431942 -0.021274902 -1.4789038 5578023
0.20574492 -0.0037554968 -1.488237 5249829
0.20445186 0.00087190792 -1.4908268 5381650
0.20448673 0.0067000203 -1.4939646 5775645
0.20450762 0.010196861 -1.495847 5907478
0.2058495 0.013728835 -1.4976498 5645065
0.20326337 0.022983648 -1.5028298 6562591
0.20328429 0.026480488 -1.5047123 6562836
0.20419514 0.031554893 -1.5073786 6365963
0.20598197 0.035875581 -1.5095731 6235408
0.2061702 0.067347355 -1.5265164 7092271
0.20487016 0.070809118 -1.5284787 7355193
0.20489806 0.075471595 -1.5309889 7552034
0.20492592 0.080134131 -1.5334991 7748884
0.20539182 0.084419757 -1.5357735 8011554
0.20630962 0.090659738 -1.539067 8337706
0.20545226 0.094521753 -1.5412122 8469294
0.2050305 0.097618409 -1.542912 8535090
0.2046088 0.10071506 -1.5446122 8667184
0.19729635 -0.091387466 -1.4416509 5972500
0.19731724 -0.087890625 -1.4435334 6038034
0.19867307 -0.082027443 -1.4465913 6105137
0.1974079 -0.07273756 -1.4516915 6433325
0.19742882 -0.069240719 -1.4535741 6366234
0.19763798 -0.034272112 -1.4724 6233609
0.19854885 -0.029197648 -1.4750662 5971974
0.1994527 -0.025288882 -1.4771045 5841413
0.20035654 -0.021380113 -1.4791431 5905946
0.19949916 -0.017518086 -1.4812882 6101022
0.19952238 -0.013632659 -1.48338 6167062
0.20043322 -0.0085582584 -1.486046 5970949
0.20046112 -0.0038957819 -1.4885561 5906195
0.20048201 -0.00039893761 -1.4904387 5905953
0.20052388 0.0065948069 -1.494204 6300709
0.20106766 0.097513191 -1.5431516 8274481
0.20108861 0.10101003 -1.5450342 8602921
0.19847459 0.10560238 -1.547704 8800303
0.19849545 0.10909922 -1.5495865 8866869
0.19853732 0.1160929 -1.5533519 9063492
0.19444531 -0.12642628 -1.4229845 5905684
0.19445926 -0.124095 -1.4242395 5709057
0.19185919 -0.11717147 -1.4281644 5774856
0.19467539 -0.087960765 -1.4436932 6235910
0.19469631 -0.084463924 -1.4455757 6170398
0.1947242 -0.079801448 -1.4480859 6302749
0.19475904 -0.073973343 -1.4512235 6563377
0.19478691 -0.069310859 -1.4537337 6365996
0.19349384 -0.064683452 -1.4563236 6234400
0.19483572 -0.061151478 -1.4581263 6300186
0.19353569 -0.057689708 -1.4600888 6170903
0.19312096 -0.053427484 -1.4624164 6301702
0.19314882 -0.048765011 -1.4649265 6170371
0.19318134 -0.043325424 -1.467855 6301706
0.19408524 -0.039416656 -1.4698936 6431750
0.19583267 0.10553224 -1.5478636 8801347
0.19453961 0.11015958 -1.5504537 8997437
0.1945675 0.11482211 -1.5529637 9194053
0.19503802 0.1198848 -1.5556564 9390918
0.19330233 0.124112 -1.558064 9590330
0.18963563 -0.047304388 -1.4659761 6299151
0.18964952 -0.044973124 -1.467231 6367003
0.19058374 0.11121999 -1.5513207 9260869
0.19060469 0.11471685 -1.5532032 9325125
0.18978211 0.12440697 -1.558486 9524278
0.18892473 0.12826902 -1.5606309 9262890
0.18538359 0.12506714 -1.5591704 9722434
0.18188435 0.12885904 -1.561475 9853752
0.18014163 0.13192055 -1.563255 9983557
0.17616487 0.12948406 -1.5622394 9984069
0.17618579 0.13298091 -1.564122 10114637
0.17134464 0.13324088 -1.5646238 10246222
0.16562515 0.13386598 -1.5653882 10245970
0.1656391 0.13619718 -1.5666432 10311762
0.16565305 0.13852841 -1.5678983 10377040
0.15902042 0.13369057 -1.5657872 10115690
0.1603553 0.13605684 -1.5669625 10181210
0.16036928 0.13838813 -1.5682175 10246997
0.15369481 0.12655655 -1.5623415 10311731
0.1546126 0.13279659 -1.5656351 9983071
0.15507153 0.13591656 -1.5672818 10049630
0.15509242 0.13941348 -1.5691644 10180696
0.1564343 0.14294538 -1.5709673 10246994
0.14839709 0.12408499 -1.5614057 10507615
0.14973891 0.12761691 -1.5632083 10245713
0.1497668 0.13227937 -1.5657187 9983326
0.14978772 0.13577628 -1.5676012 9983334
0.14980865 0.13927314 -1.5694838 9982817
0.14982957 0.14276996 -1.5713664 9917784
0.14443421 0.12397977 -1.5616452 10245723
0.14401248 0.12707642 -1.5633452 10114645
0.14448303 0.13213909 -1.5660379 9918051
0.14450392 0.13563594 -1.5679204 9918331
0.14583886 0.13800228 -1.5690957 10049383
0.1404435 0.11921204 -1.5593746 9721182
0.1404644 0.12270894 -1.5612571 9917792
0.14049229 0.1273714 -1.5637673 10048069
0.14052019 0.13203388 -1.5662774 9851989
0.13780159 0.11914188 -1.5595342 10114146
0.13782948 0.12380437 -1.5620444 10048594
0.13652945 0.12726614 -1.5640067 10049338
0.13522941 0.13072792 -1.5659691 10049604
0.13251781 0.11900162 -1.5598536 10377555
0.13254571 0.12366407 -1.5623637 10179663
0.13124567 0.12712583 -1.5643262 10115145
0.12596187 0.12698558 -1.5646454 10180434
0.12112072 0.12724549 -1.5651473 10114382
0.11937803 0.13030699 -1.5669272 10114376
0.11495626 0.12708178 -1.5655198 10508345
0.11673617 0.13023686 -1.5670869 10312008
0.10966787 0.12616441 -1.5654209 10180142
0.10477787 0.11826501 -1.5615299 9918027
0.10479879 0.12176184 -1.5634127 9983560
0.10614067 0.12529376 -1.5652155 10049357
0.0994941 0.11812464 -1.5618494 9459270
0.099508047 0.12045587 -1.5631044 9525056
0.095531285 0.11801945 -1.562089 9260868
0.095552146 0.12151628 -1.5639714 9327678
0.095573097 0.12501311 -1.565854 9524566
0.09156841 0.11791416 -1.5623283 9063245
0.091589332 0.12141108 -1.5642109 9195851
0.092931181 0.12494298 -1.5660137 9394002
0.084893972 0.1060826 -1.5564522 8141867
0.085839659 0.11698518 -1.5622559 8602949
0.084977627 0.12007003 -1.5639825 8801088
0.080847442 0.091989897 -1.5491612 7287814
0.08086139 0.094321154 -1.5504162 7286810
0.080882311 0.097818069 -1.5522989 7484203
0.080910206 0.10248054 -1.5548091 7813158
0.080495447 0.10674276 -1.5571367 7945008
0.080527991 0.11218236 -1.5600652 8207657
0.080993861 0.11646796 -1.5623394 8404279
0.082342684 0.12116552 -1.5647697 8801339
0.074214816 0.087152064 -1.5470502 7748424
0.075556695 0.090683982 -1.548853 7550739
0.075577617 0.094180875 -1.5507356 7549985
0.076919466 0.097712792 -1.5525384 7483701
0.076064408 0.10196341 -1.5548927 7681331
0.075654298 0.10700267 -1.5576385 7747652
0.076120168 0.11128835 -1.5599128 8075311
0.077024043 0.11519713 -1.5619514 8337462
0.070245028 0.085881226 -1.5466622 8009766
0.070710897 0.090166844 -1.5489366 7812623
0.071614772 0.094075672 -1.5509752 7747351
0.071698427 0.10806309 -1.5585055 7353656
0.064898491 0.075250342 -1.5413338 8601373
0.06493333 0.081078455 -1.5444714 8600361
0.064961225 0.085740931 -1.5469816 8206113
0.058279783 0.072743729 -1.5404779 8864322
0.059621632 0.076275632 -1.5422806 8864310
0.059649557 0.080938108 -1.5447907 8995885
0.059677422 0.085600592 -1.5473008 8535596
0.055651844 0.075004794 -1.5418925 8865603
0.054365754 0.080797777 -1.5451101 8800027
0.053950995 0.085060053 -1.5474377 8734760
0.05040291 0.080692559 -1.5453495 9129508
0.050423831 0.08418946 -1.547232 8998439
0.046440065 0.08058735 -1.5455891 9325873
0.046460986 0.08408425 -1.5474716 9129518
0.041135371 0.076950163 -1.5440258 9128522
0.041156292 0.080447063 -1.5459085 9194544
0.035350829 0.066696145 -1.538933 9063196
0.035816699 0.070981771 -1.5412076 9129771
0.035844624 0.07564424 -1.5437176 9064000
0.035872489 0.080306724 -1.5462277 9129280
0.030512005 0.067344636 -1.5396442 9192496
0.030532897 0.070841484 -1.5415267 9325367
0.030560791 0.07550396 -1.5440369 9129275
0.030581713 0.079000808 -1.5459195 9129282
0.023928165 0.070666075 -1.541926 8997440
0.025714993 0.074986823 -1.5441204 8998196
0.025742888 0.079649307 -1.5466306 8932418
0.019972295 0.071726494 -1.5427929 8865356
0.019550577 0.074823081 -1.544493 8932934
0.020014137 0.078720182 -1.5465581 9259585
0.014243543 0.070797428 -1.5427206 8865618
0.014709428 0.075083055 -1.5449948 8800581
0.014294684 0.079345278 -1.5473225 8735292
0.01344426 0.084372938 -1.5500951 8472619
0.0089597404 0.070657089 -1.5430398 8800832
0.0094256401 0.074942715 -1.5453143 8602417
0.0094535202 0.079605192 -1.5478243 8405807
0.0094814003 0.084267668 -1.5503345 8275751
0.0099519342 0.089330398 -1.5530272 8406058
0.0054070204 0.065512486 -1.5405334 8668748
0.0054349005 0.070175022 -1.5430435 8601665
0.0054627955 0.074837506 -1.5455537 8403761
0.0054906756 0.079499982 -1.5480639 8274224
0.0055185705 0.084162451 -1.5505741 8276045
0.0055534244 0.089990571 -1.5537117 8471865
0.0027720779 0.066607974 -1.5413207 8471876
0.002793014 0.070104882 -1.5432032 8404801
0.0015069246 0.075897865 -1.5464207 8075825
0.0028487891 0.079429843 -1.5482235 8208689
0.0015557259 0.084057234 -1.5508136 8275522
0.0020262599 0.089119904 -1.5535061 8471873
0.0029254556 0.092251636 -1.5551263 8801083
-0.0037280768 0.083916895 -1.5511328 8209450
-0.0023722798 0.089780077 -1.5541906 8538679
-0.0090118647 0.083776616 -1.5514522 8406311
-0.0094219595 0.088815942 -1.5541981 8800556
-0.014295653 0.083636276 -1.5517715 8668981
-0.014267772 0.088298805 -1.5542816 8997168
-0.014246866 0.091795661 -1.5561641 9326136
-0.015546873 0.095257424 -1.5581267 9719866
-0.020928279 0.078798443 -1.5496606 8801570
-0.019579455 0.083495989 -1.5520908 8932398
-0.01955156 0.088158466 -1.5546008 9325870
-0.019530639 0.091655307 -1.5564835 9326131
-0.019509733 0.095152207 -1.5583661 9457723
-0.019924477 0.09941449 -1.5606937 9654851
-0.020781875 0.10327645 -1.5628387 9719885
-0.025329113 0.079070084 -1.5501359 9063722
-0.024863243 0.08335571 -1.55241 9195309
-0.024835363 0.088018179 -1.5549203 9391162
-0.024814442 0.091515027 -1.5568029 9325634
-0.024793535 0.095011927 -1.5586854 9260102
-0.02476564 0.099674411 -1.5611956 9522760
-0.031516761 0.075020969 -1.5484166 8999496
-0.030174926 0.078552894 -1.5502193 9064513
-0.030147016 0.083215363 -1.5527295 8998979
-0.030119136 0.08787784 -1.5552396 8997972
-0.03009823 0.09137474 -1.5571221 9128277
-0.030077294 0.094871588 -1.5590049 8998223
-0.028728485 0.099569134 -1.5614351 9260361
-0.036800563 0.07488063 -1.5487359 9064028
-0.035458714 0.078412607 -1.5505385 9129538
-0.035430834 0.083075084 -1.5530488 9194820
-0.035402939 0.087737553 -1.5555589 9260629
-0.035382017 0.091234401 -1.5574416 9192788
-0.035368085 0.093565665 -1.5586966 9258830
-0.03944245 0.07481049 -1.5488956 9130068
-0.039421558 0.078307323 -1.550778 9260098
-0.039393678 0.082969867 -1.5532882 9325379
-0.039365768 0.087632284 -1.5557984 9587794
-0.039344862 0.091129191 -1.5576811 9191506
-0.039330915 0.093460463 -1.5589361 9385805
-0.044761121 0.068842091 -1.5460773 8603188
-0.043412298 0.073539637 -1.5485076 8734533
-0.043384403 0.078202114 -1.5510176 8997440
-0.043356508 0.082864597 -1.5535278 9128511
-0.043328628 0.087527074 -1.5560379 9128008
-0.043307707 0.091023982 -1.5579205 8995656
-0.047396049 0.069937579 -1.5468643 8472122
-0.048253432 0.073799558 -1.5490093 8407359
-0.048668176 0.078061774 -1.551337 8735801
-0.048640296 0.082724318 -1.5538471 9128499
-0.048612416 0.087386794 -1.5563573 9323306
-0.047270551 0.090918772 -1.5581601 8930604
-0.052707732 0.065134764 -1.5446734 8206593
-0.054007739 0.068596542 -1.546636 8338989
-0.053979844 0.073259018 -1.5491462 8341050
-0.053951949 0.077921502 -1.5516562 8670022
-0.053924084 0.082584031 -1.5541663 8931642
-0.053903162 0.086080819 -1.556049 9061423
-0.059312433 0.064959355 -1.5450728 7879729
-0.058853567 0.068079405 -1.5467194 8142408
-0.059256703 0.074284367 -1.5500929 8340037
-0.059235767 0.077781208 -1.5519755 8537170
-0.058769882 0.082066834 -1.55425 8668996
-0.064707816 0.046169162 -1.5353515 6827541
-0.064679906 0.050831579 -1.5378617 7025176
-0.064665973 0.05316285 -1.5391167 7155492
-0.064631104 0.058990963 -1.5422544 7287090
-0.064603209 0.063653447 -1.5447645 7683123
-0.065017968 0.067915715 -1.5470921 7944769
-0.06454742 0.072978385 -1.5497848 8142148
-0.064519554 0.077640869 -1.552295 8274489
-0.07135433 0.039000005 -1.5319855 6431761
-0.07001248 0.042531975 -1.5337882 6366486
-0.0699846 0.047194459 -1.5362984 6631449
-0.069963664 0.050691299 -1.5381809 6827024
-0.069942772 0.054188207 -1.5400635 6958370
-0.069914877 0.058850683 -1.5425738 7221288
-0.069887012 0.063513152 -1.5450838 7485994
-0.069421127 0.067798771 -1.5473583 7814202
-0.069831222 0.072838113 -1.550104 7945795
-0.070245981 0.077100396 -1.5524317 8010803
-0.076847285 0.0038911179 -1.5134789 6564129
-0.076833338 0.0062223263 -1.5147339 6695195
-0.076805443 0.010884862 -1.5172441 6957085
-0.076784551 0.014381707 -1.5191265 6759968
-0.076756656 0.019044183 -1.5216367 6562840
-0.075317204 0.038894795 -1.5322249 6302740
-0.075296283 0.042391643 -1.5341077 6303246
-0.075268403 0.047054172 -1.5366178 6434569
-0.073926538 0.050586089 -1.5384204 6695687
-0.074783921 0.054448113 -1.5405655 6892050
-0.07519868 0.058710329 -1.5428929 7090458
-0.075170815 0.063372813 -1.5454032 7419685
-0.075142905 0.06803529 -1.5479133 7682859
-0.074677035 0.072320975 -1.5501877 7879204
-0.082138047 0.0025852025 -1.5131706 6368024
-0.082110167 0.0072476752 -1.5156808 6562837
-0.080768317 0.010779589 -1.5174836 6560778
-0.08119005 0.013876241 -1.5191835 6495235
-0.080719516 0.018938966 -1.5218763 6430983
-0.082012579 0.023566376 -1.5244662 6496785
-0.081984699 0.028228857 -1.5269763 6494742
-0.081956774 0.032891326 -1.5294865 6363672
-0.080169976 0.037212022 -1.5316809 6234393
-0.080039829 0.058970243 -1.5433949 6695972
-0.080454603 0.063232534 -1.5457225 7155498
-0.079988718 0.067518152 -1.5479969 7614501
-0.084982157 -0.031287972 -1.4951317 5708833
-0.084912434 -0.019631753 -1.5014071 5973287
-0.084891528 -0.016134908 -1.5032897 5972492
-0.084863633 -0.011472432 -1.5057998 6167559
-0.084835738 -0.0068099555 -1.50831 6232336
-0.084807843 -0.002147479 -1.5108202 6103830
-0.084779963 0.002515059 -1.5133303 6170391
-0.084752083 0.0071775354 -1.5158403 6299420
-0.084731162 0.01067438 -1.517723 6299154
-0.084703267 0.015336856 -1.5202332 6233092
-0.084675401 0.019999333 -1.5227433 6232579
-0.08465448 0.023496173 -1.5246259 6234633
-0.084626585 0.02815865 -1.527136 6300181
-0.08459869 0.032821193 -1.5296462 6299672
-0.084577799 0.036318034 -1.5315287 6299951
-0.09048903 -0.068728134 -1.47537 4589337
-0.090405375 -0.054740701 -1.4829004 4723969
-0.0895015 -0.050831873 -1.4849391 4985349
-0.0890356 -0.046546251 -1.4872134 5182734
-0.089007705 -0.041883774 -1.4897234 5117970
-0.08897984 -0.037221298 -1.4922336 5315855
-0.088951945 -0.032558821 -1.4947437 5316625
-0.088931039 -0.029061977 -1.4966264 5446918
-0.088910133 -0.025565073 -1.4985089 5642765
-0.088444248 -0.021279452 -1.5007833 5774355
-0.087533414 -0.01620505 -1.5034494 5905671
-0.088388488 -0.011954499 -1.5058035 5904644
-0.088355958 -0.0065149143 -1.5087321 5904656
-0.088770688 -0.0022526905 -1.5110595 5775635
-0.087421864 0.0024448559 -1.51349 6038804
-0.087400973 0.0059417598 -1.5153725 6037537
-0.096163243 -0.13414314 -1.4405476 5117441
-0.096142322 -0.13064632 -1.4424301 4328961
-0.093465567 -0.12474806 -1.4454081 3607041
-0.093444645 -0.12125122 -1.4472907 3410177
-0.09341675 -0.11658873 -1.449801 3345153
-0.093388885 -0.1119262 -1.4523109 3541251
-0.093347043 -0.10493252 -1.4560761 3737860
-0.094197452 -0.09990485 -1.4588488 3737859
-0.094612241 -0.095642641 -1.4611763 4064264
-0.095027 -0.09138035 -1.4635038 3934212
-0.095877409 -0.086352751 -1.4662764 3803137
-0.095849514 -0.081690267 -1.4687865 3475201
-0.094500661 -0.07699272 -1.4712168 3803137
-0.094472796 -0.072330244 -1.473727 3868683
-0.094451874 -0.068833344 -1.4756095 4327432
-0.094430968 -0.065336503 -1.4774921 4196354
-0.094403058 -0.060674023 -1.4800023 4196098
-0.094382167 -0.057177119 -1.4818848 4261893
-0.093005434 -0.047817096 -1.4868253 5180167
-0.093848884 -0.041623861 -1.4902254 5050889
-0.094263643 -0.037361581 -1.4925529 4986372
-0.09291479 -0.032664031 -1.4949833 4790790
-0.092893884 -0.02916719 -1.4968659 4987398
-0.092879951 -0.026835922 -1.4981209 5249031
-0.10147491 -0.13894597 -1.4383568 5180702
-0.10057102 -0.1350372 -1.4403954 4852996
-0.098512322 -0.085257247 -1.4670635 3409665
-0.10414469 -0.14367858 -1.4360063 5114903
-0.10500676 -0.14059368 -1.4377328 5049622
-0.10409591 -0.13551927 -1.4403991 4984579
-0.11222377 -0.16953272 -1.4226795 4722698
-0.11131991 -0.16562396 -1.424718 4722956
-0.110854 -0.16133827 -1.4269924 4919815
-0.11082612 -0.15667579 -1.4295025 4854277
-0.1121192 -0.15204839 -1.4320925 4788743
-0.11767488 -0.19764793 -1.4079381 3934210
-0.11764004 -0.19181982 -1.4110756 4327431
-0.11489354 -0.17426535 -1.420329 4591361
-0.11575559 -0.17118043 -1.4220557 4722947
-0.11484472 -0.16610602 -1.4247218 4330249
-0.11481686 -0.16144347 -1.4272319 4722438
-0.11567191 -0.15719293 -1.4295861 4787970
-0.11476806 -0.15328416 -1.4316245 4723205
-0.1213043 -0.21561432 -1.3985287 3998978
-0.12171439 -0.21057495 -1.4012746 4064770
-0.12168653 -0.20591247 -1.4037848 3933955
-0.12122063 -0.20162684 -1.4060591 3999496
-0.12163074 -0.1965875 -1.4088051 3869185
-0.12160286 -0.19192505 -1.4113152 4393474
-0.12158193 -0.18842819 -1.4131979 4656388
-0.12148432 -0.17210948 -1.4219832 4920577
-0.12834699 -0.21541283 -1.3991636 4461315
-0.12656018 -0.21109214 -1.4013581 4264451
-0.12565632 -0.2071833 -1.4033968 4200974
-0.12558663 -0.19552714 -1.409672 4264705
-0.12555873 -0.19086465 -1.4121822 4984577
-0.12554479 -0.18853343 -1.4134374 4918786
-0.12553085 -0.18620214 -1.4146924 4853770
-0.14188418 -0.27054775 -1.3704679 1310978
-0.14187023 -0.26821649 -1.3717229 1835265
-0.14052835 -0.26468459 -1.3735257 2425346
-0.1458331 -0.26832175 -1.3719624 2162950
-0.14581217 -0.2648249 -1.3738451 3277570
-0.15111685 -0.26846203 -1.3722819 3080722
-0.15109594 -0.26496518 -1.3741643 4132357
-0.15107504 -0.26146832 -1.3760469 5317121
-0.15640067 -0.26860237 -1.3726012 3473931
-0.15637974 -0.26510552 -1.3744837 4527620
-0.15635882 -0.26160863 -1.3763664 5711367
-0.1562891 -0.24995244 -1.3826417 6826021
-0.15758912 -0.24649063 -1.3846041 6695949
-0.15756822 -0.2429938 -1.3864868 6561803
-0.16214333 -0.27186266 -1.3712738 2818311
-0.16168444 -0.26874265 -1.3729204 3540497
-0.16160078 -0.25475523 -1.380451 6892609
-0.16026589 -0.25238889 -1.3816261 7155498
-0.16022405 -0.24539521 -1.3853912 6628362
-0.16020313 -0.24189836 -1.3872739 5838861
-0.16698913 -0.27237982 -1.3713571 3014918
-0.1656473 -0.26884788 -1.3731599 3671312
-0.16644888 -0.25566095 -1.3803253 6630480
-0.16687062 -0.25256431 -1.3820251 6957375
-0.17227294 -0.2725201 -1.3716766 3145987
-0.17225203 -0.2690233 -1.3735591 3932428
-0.17351721 -0.25973341 -1.3786592 5969194
-0.17218231 -0.25736704 -1.3798344 6433070
-0.17622881 -0.27145973 -1.3725436 3408135
-0.17621487 -0.2691285 -1.3737986 3999502
-0.1761591 -0.25980353 -1.3788189 6169115
-0.17613816 -0.25630668 -1.3807015 6698508
-0.17611724 -0.25280982 -1.3825842 6696202
-0.17887072 -0.27152988 -1.3727032 3408388
-0.18017772 -0.26923373 -1.3740382 3869956
-0.18015683 -0.26573691 -1.3759207 4787487
-0.18012892 -0.26107436 -1.3784308 5841171
-0.18010104 -0.25641191 -1.3809409 6695194
-0.18140109 -0.25295013 -1.3829033 6630197
-0.18411966 -0.26584211 -1.3761601 4461362
0.31797558 0.1040666 -1.5311145 9327438
0.31799656 0.10757854 -1.5330051 9855059
0.3119548 -0.015480811 -1.4671504 7484417
0.3119688 -0.013139548 -1.468411 5046529
0.31532228 0.10399614 -1.5312748 9589322
0.31357205 0.10707098 -1.5330621 9326675
0.30930156 -0.01555128 -1.4673108 10119229
0.30931544 -0.013209961 -1.4685712 9450527
0.30802387 -0.007391952 -1.4718027 3014913
0.30871004 0.10733195 -1.5335664 9851204
0.30230075 -0.0032521561 -1.4744608 3539208
0.30143958 0.00062649697 -1.4766152 2031880
0.30340344 0.107191 -1.533887 9983301
0.30298692 0.11147173 -1.5362246 9786417
0.29877228 -0.0017852969 -1.4755151 4849927
0.29879332 0.001726687 -1.4774057 1310986
0.29882133 0.0064092688 -1.4799268 3277317
0.29942346 0.10708537 -1.5341276 10049349
0.29945141 0.11176794 -1.5366485 9786418
0.29947245 0.11527992 -1.5385393 9656090
0.29528594 0.0067055859 -1.4803506 2687236
0.29486936 0.010986201 -1.4826882 3539714
0.2935707 0.015633553 -1.4852893 3736337
0.29680514 0.11286811 -1.5374391 9787448
0.29549956 0.11634488 -1.53941 9590067
0.29089648 0.012051161 -1.483559 3343105
0.29003531 0.01592993 -1.4857132 3934466
0.2882852 0.019004591 -1.4875008 4326657
0.29063749 0.11660603 -1.539914 9720862
0.28563184 0.018934183 -1.4876612 3933697
0.28432626 0.02241087 -1.4896321 3409153
0.28302759 0.027058277 -1.4922332 3476225
0.28533089 0.11646507 -1.5402347 9852476
0.28038126 0.028158467 -1.4930238 3542019
0.27863109 0.031233303 -1.4948113 3147526
0.27958673 0.11709278 -1.5410024 9656125
0.27421355 0.031896293 -1.4954987 3277569
0.27335244 0.035775006 -1.4976529 3475201
0.27249837 0.040824257 -1.5004376 3802881
0.27428013 0.11695189 -1.5413231 9262913
0.27429414 0.11929316 -1.5425836 9460041
0.26982403 0.037241869 -1.4987072 3344641
0.26851845 0.040718555 -1.5006781 3409665
0.27030021 0.11684618 -1.5415636 9720660
0.26899454 0.12032294 -1.5435345 9655114
0.27034217 0.12387008 -1.5453452 9590095
0.26279527 0.044858351 -1.5033362 3082497
0.26193422 0.048736997 -1.5054907 3212545
0.26366696 0.11667001 -1.5419644 9851434
0.26368791 0.12018199 -1.5438553 9655362
0.25926691 0.046325274 -1.5043906 2755585
0.25928792 0.049837194 -1.5062813 2950409
0.25930887 0.053349175 -1.508172 3016226
0.25932992 0.056861095 -1.5100627 3147789
0.25935793 0.06154374 -1.5125837 3475460
0.25937891 0.065055653 -1.5144744 3803656
0.25968698 0.11656436 -1.542205 9590340
0.25970799 0.12007628 -1.5440958 9721170
0.25668362 0.057961285 -1.5108533 3015428
0.25582254 0.061840057 -1.5130075 3212290
0.25539899 0.064950012 -1.5147148 3474947
0.25434539 0.11057017 -1.5393746 9459290
0.25526017 0.11566655 -1.542052 9392967
0.25572807 0.11997064 -1.5443363 9720909
0.25140506 0.06250298 -1.513695 3146497
0.25009939 0.065979742 -1.5156659 3080706
0.25167111 0.1069878 -1.5376443 9260619
0.25169212 0.11049972 -1.5395349 9326418
0.2517271 0.11635301 -1.5426861 9261389
0.25042143 0.11982969 -1.5446571 9523544
0.24612641 0.067044683 -1.5165366 2687234
0.24437621 0.070119523 -1.5183241 2883841
0.2446143 0.10992169 -1.5397524 9260084
0.24375317 0.11380028 -1.5419066 9261114
0.24511486 0.11968882 -1.5449778 9392199
0.24514985 0.12554207 -1.5481288 9589845
0.2399587 0.07078252 -1.5190115 2687233
0.23909763 0.074661173 -1.5211657 3211779
0.23823655 0.078539826 -1.5233201 3868169
0.23842561 0.11014742 -1.5403366 9128754
0.23978025 0.11486524 -1.5427774 9129772
0.23936835 0.11992642 -1.5455352 9196082
0.23983628 0.12423047 -1.5478194 9392955
0.23423561 0.074922197 -1.5216699 3342854
0.23381907 0.079202875 -1.5240074 4195844
0.23445266 0.11121244 -1.5412073 8996383
0.23450863 0.1205776 -1.5462493 8998706
0.23585629 0.1241248 -1.5480599 9196090
0.233224 0.12756625 -1.5501111 9392462
0.23323804 0.12990758 -1.5513715 9588560
0.22892898 0.074781254 -1.5219907 4131335
0.228957 0.079463899 -1.5245116 4852996
0.22958359 0.11030286 -1.5410812 8668974
0.22916704 0.11458347 -1.5434189 9061929
0.22919503 0.11926606 -1.5459398 8997177
0.22878313 0.12432719 -1.5486975 8997447
0.22924405 0.12746063 -1.5503515 9325902
0.22793138 0.1297667 -1.5516922 9653591
0.22362942 0.075811036 -1.5229416 5378843
0.2236504 0.079322957 -1.5248324 5708316
0.22245678 0.10153014 -1.536887 8338991
0.22386748 0.1156132 -1.5443699 8734510
0.22388843 0.11912511 -1.5462605 8800573
0.22258282 0.12260186 -1.5482315 8932672
0.2194044 0.034732513 -1.5011237 3014956
0.21964246 0.07453467 -1.5225519 6105619
0.21967047 0.079217315 -1.5250728 6565402
0.21969149 0.082729235 -1.5269636 6761753
0.21980348 0.10145967 -1.5370474 8601125
0.21988752 0.11550748 -1.5446104 8735773
0.21990851 0.11901947 -1.546501 8736048
0.21993649 0.12370206 -1.549022 8998202
0.21399277 0.017031841 -1.4919907 7426884
0.21404877 0.026397064 -1.4970326 5251623
0.21540344 0.031114884 -1.4994733 5177867
0.21542442 0.034626804 -1.5013642 4588557
0.21506393 0.048272766 -1.5087436 4656897
0.21420282 0.052151352 -1.510898 5116929
0.21510592 0.055296667 -1.5125251 5182977
0.21425882 0.061516583 -1.5159398 5709826
0.21427983 0.065028563 -1.5178306 5974273
0.21518993 0.069344468 -1.520088 6041092
0.21566251 0.074429028 -1.5227923 6434830
0.2156975 0.080282263 -1.5259436 6894105
0.21582353 0.10135398 -1.537288 8404506
0.21586555 0.10837788 -1.5410694 8276500
0.21593556 0.12008443 -1.5473719 8736041
0.21595654 0.12359633 -1.5492625 9063989
0.21465093 0.12707308 -1.5512335 9260355
0.20858112 -0.00066882744 -1.4828577 4787239
0.20993578 0.0040489882 -1.4852986 5514774
0.20952392 0.0091101229 -1.4880562 5644046
0.20999879 0.014584873 -1.4909707 5838868
0.21001282 0.016926132 -1.4922311 5640978
0.21003383 0.02043812 -1.494122 5902612
0.21006182 0.025120698 -1.4966429 5835296
0.21008983 0.029803343 -1.4991639 5770781
0.2105577 0.034107551 -1.501448 5771794
0.21159852 0.060275517 -1.5154699 5907202
0.21029988 0.064922862 -1.5180712 6368275
0.21165454 0.069640733 -1.5205119 6500356
0.21080041 0.074690111 -1.5232964 6895651
0.20919031 0.1011778 -1.5376889 8469796
0.21009803 0.10510357 -1.539736 8537125
0.21056592 0.10940766 -1.5420203 8538908
0.20926729 0.114055 -1.5446215 8735010
0.21062195 0.11877283 -1.5470623 8866095
0.21064997 0.12345547 -1.5495832 9128769
0.20285442 -0.071048863 -1.445364 6105900
0.20288244 -0.066366285 -1.4478849 6431519
0.20308548 -0.032417364 -1.466162 5972489
0.2044822 -0.020675642 -1.4723842 5512469
0.20319051 -0.014857575 -1.4756156 5905446
0.20454517 -0.01013976 -1.4780564 5774371
0.20457321 -0.0054571759 -1.4805773 5643027
0.20327455 -0.00080977008 -1.4831785 5709340
0.20465022 0.0074200295 -1.48751 5644308
0.20605385 0.020332407 -1.4943625 6035722
0.20608187 0.025015049 -1.4968835 6231589
0.20610988 0.029697634 -1.4994044 6298911
0.20613086 0.033209614 -1.5012951 6299916
0.20656496 0.10578997 -1.5403701 8668977
0.20525932 0.10926672 -1.5423411 8669736
0.20528734 0.11394935 -1.5448619 8735282
0.20531535 0.11863194 -1.5473831 8932667
0.20534337 0.12331452 -1.549904 9064009
0.20403773 0.12679127 -1.5518749 9326913
0.20405173 0.1291326 -1.5531354 9523522
0.19748482 -0.081725627 -1.4400125 6038051
0.19751984 -0.075872384 -1.4431638 6302480
0.19931436 -0.071533002 -1.4453676 6302486
0.20022917 -0.066436753 -1.4480454 6431241
0.19848594 -0.062191252 -1.4504629 6366236
0.19762483 -0.058312602 -1.4526173 6301465
0.19764584 -0.054800674 -1.4545081 6300944
0.19767386 -0.050118037 -1.457029 6497808
0.19770187 -0.045435451 -1.45955 5843218
0.19772989 -0.040752869 -1.4620709 6236421
0.1977579 -0.036070228 -1.464592 6627843
0.20043918 -0.031317174 -1.4669524 5972489
0.2004602 -0.027805191 -1.4688433 5841162
0.2012794 0.109161 -1.5425816 8735003
0.20042533 0.11421043 -1.545366 8801337
0.20044863 0.11811262 -1.5474668 8932677
0.20003676 0.12317365 -1.5502248 9129014
0.20005774 0.12668556 -1.5521154 9325347
0.20007876 0.13019755 -1.5540062 9523251
0.20009977 0.13370952 -1.5558969 9589567
0.19487351 -0.074772194 -1.4439542 6433281
0.19502756 -0.049017843 -1.4578196 6496770
0.19505557 -0.044335261 -1.4603407 5908994
0.19506955 -0.041993938 -1.461601 6105603
0.19607782 0.12657985 -1.5523559 9457217
0.19521672 0.13045868 -1.55451 9589557
0.19435561 0.13433734 -1.5566643 9655609
0.18993813 0.13500032 -1.5573518 9590328
0.18463153 0.13485944 -1.5576724 9721926
0.18420801 0.13796934 -1.5593799 10114648
0.18292338 0.14495808 -1.5632416 9919313
0.18023503 0.1390343 -1.5602506 10049363
0.17893642 0.1436817 -1.5628519 10115158
0.1789574 0.1471937 -1.5647424 10049627
0.17493546 0.14006403 -1.5612016 10311767
0.17495647 0.143576 -1.5630925 10442580
0.17095548 0.13995838 -1.5614423 10443344
0.17097652 0.14347038 -1.5633329 10573132
0.1709975 0.14698228 -1.5652237 10507344
0.16567689 0.14450008 -1.5642837 10442574
0.16525334 0.14761016 -1.5659912 10443111
0.16037029 0.1443592 -1.5646045 10443345
0.15994677 0.14746922 -1.566312 10443354
0.15464485 0.14810872 -1.5670527 10049612
0.14978513 0.14875996 -1.567767 9853008
0.14979911 0.15110129 -1.5690274 9788243
0.1440036 0.14314434 -1.5651731 9983580
0.14447153 0.14744836 -1.5674574 10049360
0.14581919 0.15099555 -1.569268 9984853
0.13776127 0.13439503 -1.5609257 9983811
0.13866901 0.1383208 -1.5629729 9918295
0.13913691 0.14262488 -1.5652572 9983560
0.14048457 0.14617208 -1.5670677 10049351
0.13512895 0.13783655 -1.5629767 9984330
0.13515696 0.14251921 -1.5654976 10180428
0.13112801 0.13421893 -1.5613266 10049861
0.13114899 0.1377309 -1.5632172 10115137
0.13249665 0.14127806 -1.5650277 10181713
0.12582141 0.13407803 -1.5616473 10115398
0.12584239 0.13758996 -1.563538 10114877
0.12184146 0.13397235 -1.5618877 10114377
0.12053579 0.13744909 -1.5638586 10113875
0.12055683 0.14096099 -1.5657494 9917266
0.11388156 0.13376099 -1.5623689 10573383
0.11522922 0.13730815 -1.5641794 10311005
0.11525023 0.14082012 -1.5660701 10310230
0.11033913 0.13288662 -1.5621624 10310721
0.10992262 0.13716719 -1.5645001 10245452
0.1099436 0.14067918 -1.5663908 10310214
0.10324034 0.12879649 -1.5604893 9984080
0.10502785 0.13196528 -1.5620629 10049872
0.10594267 0.13706157 -1.5647405 10180435
0.10596365 0.14057347 -1.5666313 10180181
0.099253386 0.1275202 -1.5600995 9590094
0.098836839 0.13180089 -1.5624371 9917270
0.095301449 0.1320971 -1.562861 9590358
0.09532246 0.13560906 -1.5647519 9721436
0.089973837 0.12844422 -1.561291 9326670
0.091321498 0.13199145 -1.5631015 9327698
0.091342509 0.13550338 -1.5649924 9197139
0.087292552 0.12369118 -1.5589304 8866632
0.085986912 0.12716791 -1.5609013 9063489
0.085570335 0.1314486 -1.5632389 9260612
0.07933265 0.12347982 -1.5594115 8603445
0.080240399 0.12740552 -1.5614587 8866621
0.081148177 0.13133118 -1.5635061 9063495
0.082055956 0.1352568 -1.5655534 9392200
0.073893011 0.10109652 -1.5477576 7484992
0.073927999 0.10694981 -1.5509088 7746372
0.073984057 0.11631498 -1.5559508 8075062
0.074891806 0.12024074 -1.5579979 8338234
0.075352699 0.12337411 -1.5596521 8470591
0.075366676 0.12571543 -1.5609124 8667461
0.068558395 0.096272983 -1.5455573 7811845
0.069913059 0.10099081 -1.5479981 7616800
0.069941074 0.10567344 -1.5505191 7615789
0.069524497 0.10995411 -1.5528566 7550514
0.069997102 0.11503867 -1.5555609 7746868
0.070025086 0.11972124 -1.558082 8009533
0.070046097 0.12323324 -1.5599726 8272206
0.070067108 0.12674513 -1.5618634 8666199
0.064557433 0.092655368 -1.543907 8009493
0.064578444 0.096167348 -1.5457978 7944208
0.06504631 0.10047155 -1.5480819 7944988
0.065961123 0.10556775 -1.5507597 7745571
0.065982103 0.10907973 -1.5526502 7747606
0.066038132 0.11844488 -1.5576922 7680829
0.059250832 0.092514418 -1.5442277 8405793
0.059271842 0.096026398 -1.5461186 8208920
0.059292853 0.099538378 -1.5480092 8141089
0.054381788 0.091604903 -1.5441016 8799535
0.053965271 0.095885463 -1.5464392 8735780
0.055312902 0.099432684 -1.5482498 8605217
0.049957305 0.091097169 -1.5441587 9325106
0.049978316 0.094609149 -1.5460496 9194032
0.045977354 0.090991527 -1.5443993 9195058
0.040649742 0.087338664 -1.5428293 9195054
0.040663749 0.089679919 -1.5440898 9195316
0.03534314 0.087197721 -1.5431499 9326905
0.035357147 0.089539044 -1.5444105 9196084
0.030022562 0.084715523 -1.5422103 9130057
0.030036539 0.087056838 -1.5434706 9195846
0.029612988 0.090166852 -1.5451781 9000001
0.028758913 0.095216118 -1.5479627 8932911
0.023361295 0.079856761 -1.5400901 8932407
0.02338928 0.084539346 -1.5426111 8932932
0.024729937 0.086915895 -1.5437914 8999247
0.024750948 0.090427876 -1.5456822 8999244
0.024334401 0.094708554 -1.5480196 8998188
0.020707995 0.079786293 -1.5402505 8997955
0.019409329 0.084433645 -1.5428517 8931390
0.019423366 0.08677496 -1.5441121 8735033
0.019444376 0.09028694 -1.5460029 8735787
0.019472361 0.094969518 -1.5485238 8667416
0.019493371 0.098481499 -1.5504147 8668214
0.015429392 0.084327996 -1.5430921 8800321
0.0154434 0.086669311 -1.5443527 8537149
0.014582291 0.090548083 -1.5465068 8471605
0.014165774 0.094828643 -1.5488446 8472118
0.015513405 0.09837579 -1.550655 8603702
0.010192811 0.095893599 -1.5497154 8471865
0.010213807 0.099405579 -1.5516059 8670020
0.0061848462 0.091105312 -1.5474349 8341310
0.0062128454 0.09578789 -1.5499557 8537653
0.0049072057 0.099264629 -1.5519267 8800820
0.0021208823 0.076951794 -1.5401126 8272952
-0.00044839084 0.090929195 -1.5478357 8406338
-0.00042039156 0.095611773 -1.5503567 8735810
0.00092726946 0.099158935 -1.5521673 8866882
0.0013998151 0.1042436 -1.5548714 9325645
0.0023029298 0.10738873 -1.5564989 9589067
-0.0044283271 0.090823486 -1.5480764 8407090
-0.0048472285 0.094713964 -1.5502037 8736053
-0.0043793172 0.099018045 -1.5524881 8672064
-0.0043513179 0.10370063 -1.5550089 9261640
-0.0047678947 0.10798136 -1.5573463 9655118
-0.0084082782 0.090717785 -1.5483168 8538156
-0.0097069293 0.095365189 -1.5509179 9129282
-0.0096859336 0.098877169 -1.5528088 9392469
-0.0096579194 0.10355975 -1.5553296 9589837
-0.0096299201 0.10824234 -1.5578506 9721425
-0.0096089244 0.11175431 -1.5597413 9918023
-0.013665885 0.09877146 -1.5530492 9982027
-0.014964521 0.10341882 -1.5556504 9786691
-0.014936522 0.10810139 -1.5581713 9787211
-0.015353054 0.11238214 -1.5605088 9920072
-0.018937454 0.10448382 -1.5565212 9721157
-0.019798562 0.10836255 -1.5586754 9786189
-0.020215094 0.1126431 -1.561013 9919823
-0.021520764 0.11611984 -1.5629839 9918786
-0.02554971 0.10781962 -1.5588126 9654351
-0.025081858 0.11212384 -1.5610968 9721165
-0.029529661 0.10771393 -1.5590532 9391694
-0.02950865 0.1112259 -1.5609441 9588562
-0.034885257 0.099378474 -1.5549623 9391181
-0.033537611 0.10292564 -1.5567728 9261128
-0.03306973 0.10722979 -1.559057 9260615
-0.038865224 0.09927278 -1.5552028 9587533
-0.038844228 0.1027847 -1.5570935 8867912
-0.038823217 0.10629668 -1.5589842 8867379
-0.044178814 0.09796118 -1.5548933 9128520
-0.044150814 0.10264381 -1.5574142 8866892
-0.042803153 0.10619097 -1.5592247 8801084
-0.050833076 0.094273083 -1.5534034 8996138
-0.049485415 0.097820304 -1.5552139 8931887
-0.049017549 0.10212445 -1.5574981 8931889
-0.054820016 0.092996769 -1.5530137 8799278
-0.054792017 0.097679354 -1.5555347 8799539
-0.053444356 0.10122658 -1.5573452 8865317
-0.060594529 0.088551797 -1.5510502 8603194
-0.060126632 0.092855833 -1.5533344 8601923
-0.060098618 0.097538479 -1.5558554 8537152
-0.065482229 0.084520385 -1.5492435 8471856
-0.065461218 0.088032305 -1.5511341 8537645
-0.065433219 0.092714943 -1.5536551 8471858
-0.06407854 0.09743277 -1.556096 8537650
-0.069476187 0.082073361 -1.5482234 8209455
-0.070788831 0.084379442 -1.5495641 8406313
-0.069448173 0.086756006 -1.5507445 8538663
-0.069420189 0.091438584 -1.5532655 8471606
-0.074789807 0.08076182 -1.5479139 8011045
-0.074768782 0.0842738 -1.5498047 8276774
-0.080313444 0.044330701 -1.5286971 6302723
-0.080292434 0.047842681 -1.5305878 6303235
-0.079377681 0.052938998 -1.5332654 6498829
-0.079354331 0.05684118 -1.5353662 6761493
-0.079237655 0.076352082 -1.5458702 8009484
-0.077443093 0.080691352 -1.5480742 8011028
-0.085788071 0.016094148 -1.5138919 6233351
-0.085760057 0.020776726 -1.5164131 6232833
-0.084307373 0.041883677 -1.5276772 6300949
-0.08429338 0.044225 -1.5289377 6301698
-0.08427237 0.04773698 -1.5308284 6302211
-0.083799839 0.052821584 -1.5335326 6498311
-0.084216371 0.057102203 -1.5358703 6629913
-0.084632903 0.061382882 -1.5382078 6695962
-0.085487008 0.066432193 -1.5409925 7090466
-0.084572256 0.071528561 -1.5436699 7614761
-0.082784683 0.074697167 -1.5452439 8336663
-0.091290712 -0.016825048 -1.4965659 5707788
-0.091269732 -0.013313068 -1.4984567 5642499
-0.091234744 -0.0074598249 -1.5016079 5708292
-0.091220722 -0.0051185042 -1.5028684 5773835
-0.091157705 0.0054173842 -1.5085405 5776913
-0.091136694 0.0089293048 -1.5104313 5906215
-0.089789048 0.012476522 -1.5122418 5971757
-0.089761049 0.017159104 -1.5147628 5904143
-0.089733034 0.021841742 -1.5172838 5969667
-0.08970502 0.026524328 -1.5198047 5971730
-0.089677021 0.031206913 -1.5223256 6101537
-0.089648992 0.035889551 -1.5248467 6168070
-0.089621007 0.040572129 -1.5273676 6235145
-0.088196322 0.056996495 -1.5361109 6695194
-0.089055106 0.061265469 -1.538475 7154447
-0.089022428 0.066728503 -1.5414163 7155742
-0.088119313 0.069873698 -1.5430435 7352363
-0.097241491 -0.12466592 -1.4389044 3869442
-0.097143486 -0.10827679 -1.4477278 3607041
-0.096240401 -0.10513148 -1.4493548 3737601
-0.09710145 -0.10125289 -1.4515092 3803393
-0.097087443 -0.098911569 -1.4527696 3803393
-0.09548074 -0.052050274 -1.4778992 4393219
-0.095459759 -0.04853829 -1.4797899 4655873
-0.095871627 -0.043477155 -1.4825476 4918277
-0.096737385 -0.040378962 -1.4842818 4787463
-0.096674338 -0.029843077 -1.489954 4854275
-0.096653342 -0.026331153 -1.4918448 4985097
-0.095745608 -0.022405446 -1.4938918 5247749
-0.095277697 -0.018101355 -1.4961762 5379845
-0.095249698 -0.013418773 -1.4986973 5248770
-0.095221668 -0.0087361317 -1.5012181 5249542
-0.095193654 -0.004053548 -1.5037392 5380357
-0.095165655 0.0006290935 -1.50626 5381638
-0.094697773 0.004933238 -1.5085441 5448972
-0.093789995 0.0088588335 -1.5105916 5774873
-0.095095634 0.01233558 -1.5125625 5643798
-0.09506765 0.017018221 -1.5150836 5709087
-0.095039651 0.021700803 -1.5176044 5643316
-0.095011622 0.026383385 -1.5201255 5840164
-0.094983622 0.03106603 -1.5226464 5839648
-0.099915773 -0.1282483 -1.4371741 4131841
-0.099726737 -0.096640714 -1.4541906 4195073
-0.10058786 -0.092761949 -1.4563447 4326658
-0.10100439 -0.088481382 -1.4586824 4261633
-0.10142095 -0.08420065 -1.46102 4131329
-0.10094836 -0.079116166 -1.4637244 3540994
-0.10092035 -0.07443358 -1.4662453 4065025
-0.10089235 -0.069750935 -1.4687663 4195586
-0.10087134 -0.066239014 -1.470657 4326402
-0.10085034 -0.062727034 -1.4725478 3998721
-0.10082233 -0.058044452 -1.4750687 3933444
-0.099474669 -0.054497238 -1.4768792 4129541
-0.099432662 -0.047473334 -1.4806607 4262657
-0.099411637 -0.043961413 -1.4825515 4130306
-0.099383652 -0.039278772 -1.4850724 4526084
-0.1006823 -0.034631424 -1.4876736 4525826
-0.10020977 -0.029546758 -1.4903777 4590593
-0.10063329 -0.026436858 -1.4920853 4525315
-0.1006123 -0.022924878 -1.493976 4656385
-0.099264607 -0.01937772 -1.4957865 4984577
-0.0992226 -0.012353757 -1.499568 4920323
-0.09920162 -0.0088418368 -1.5014586 4985860
-0.099047571 0.01691252 -1.515324 5446166
-0.099019557 0.021595098 -1.5178449 5577520
-0.098998547 0.025107082 -1.5197357 5642279
-0.098970562 0.029789664 -1.5222566 5708816
-0.10495633 -0.083904445 -1.461444 4917761
-0.12004662 -0.16740829 -1.4175787 4723457
-0.11869895 -0.16386107 -1.4193892 4461575
-0.11955307 -0.15881169 -1.4221736 4788230
-0.12688987 -0.20270395 -1.3990723 4199175
-0.1242086 -0.19795087 -1.4014329 4460801
-0.12684789 -0.19567999 -1.4028537 4593153
-0.12681988 -0.19099742 -1.4053748 4591873
-0.1295712 -0.20745701 -1.3967117 4331279
-0.12955719 -0.20511571 -1.3979721 4265244
-0.14322983 -0.2733658 -1.3622198 524550
-0.14321581 -0.2710245 -1.3634803 917764
-0.14718173 -0.26878881 -1.3649814 1442055
-0.15248834 -0.26892975 -1.3653021 2425106
-0.15646827 -0.2690354 -1.3655427 2818825
-0.16180289 -0.27385899 -1.3633423 1835266
-0.16001539 -0.2706902 -1.364916 2556165
-0.16164887 -0.24810466 -1.3772076 6892572
-0.16163486 -0.24576333 -1.3784682 6695187
-0.16578282 -0.2739647 -1.363583 2162946
-0.16431616 -0.25051644 -1.3761076 7351607
-0.16695547 -0.24824557 -1.3775284 6826284
-0.16560778 -0.24469838 -1.379339 6562839
-0.16557981 -0.24001577 -1.3818599 5904648
-0.17065191 -0.27487421 -1.3634565 2425089
-0.17228305 -0.25189847 -1.3759584 6696243
-0.16960877 -0.24831599 -1.3776886 6695209
-0.16958773 -0.24480408 -1.3795794 6367006
-0.1708864 -0.24015665 -1.3821806 5840659
-0.17086537 -0.23664474 -1.3840714 5114635
-0.17595851 -0.27501515 -1.3637773 2556161
-0.1777087 -0.27194044 -1.3655649 3014913
-0.17493637 -0.25196892 -1.3761187 6631197
-0.17756866 -0.24852741 -1.3781698 6694669
-0.17663291 -0.23991907 -1.3827379 5970206
-0.17660955 -0.2360169 -1.3848388 5378572
-0.18212622 -0.27127737 -1.3662523 3014913
-0.18023595 -0.25093919 -1.3770696 6695967
-0.18154863 -0.24863306 -1.3784103 6759989
-0.18013793 -0.23455003 -1.3858931 5837843
-0.18012391 -0.2322087 -1.3871535 5509388
-0.18698125 -0.26984566 -1.3673867 2425606
-0.18827988 -0.26519835 -1.3699878 3870004
-0.18737216 -0.26127264 -1.372035 4726848
-0.18646438 -0.25734699 -1.3740824 5579292
-0.18554959 -0.25225073 -1.37676 6431792
-0.18552856 -0.24873877 -1.3786509 6629185
-0.18551457 -0.24639744 -1.3799114 6760499
-0.19093318 -0.2652688 -1.3701482 3542301
0.3160035 0.11216531 -1.5287951 8805203
0.31513399 0.11527697 -1.5305365 9855829
0.30995685 -0.0078959204 -1.4645561 5701889
0.30891639 0.11511182 -1.5309123 9784383
0.30805856 0.1201828 -1.5337089 9853749
0.30465555 -0.0033347122 -1.4674101 5374209
0.30537283 0.11658499 -1.5319711 9785638
0.30405444 0.11890098 -1.5333174 9720071
0.30275029 0.12356832 -1.5359298 9919314
0.3027643 0.12591967 -1.5371957 10115677
0.29801488 1.5471131e-05 -1.4697115 8269326
0.29671067 0.0046828166 -1.4723239 4260112
0.30007148 0.12114619 -1.534825 9656378
0.29875326 0.12346216 -1.5361713 9721694
0.29921609 0.12660921 -1.5378323 9918313
0.29404593 0.0046120808 -1.4724849 7214867
0.29229522 0.00887575 -1.474913 3539203
0.29143041 0.012771085 -1.4770766 2884353
0.29342383 0.12332069 -1.5364934 9654864
0.2921055 0.12563667 -1.5378399 9851700
0.28877276 0.013875976 -1.4778706 2621953
0.28879386 0.017403036 -1.4797695 3868417
0.28942674 0.12321455 -1.5367351 9852234
0.28944081 0.12556595 -1.5380009 9917762
0.28478283 0.014945522 -1.4787451 4587777
0.28612918 0.017332293 -1.4799305 2557185
0.28481793 0.020823956 -1.4819099 3343363
0.28542966 0.12310842 -1.5369766 9786438
0.27996314 0.0257889 -1.4849478 2950145
0.27909833 0.029684298 -1.4871112 3409409
0.28010029 0.12296686 -1.5372986 9656384
0.27878201 0.12528285 -1.538645 9656377
0.27970308 0.13079306 -1.5415452 9526576
0.28020579 0.14060211 -1.5467929 9657925
0.27466184 0.030350111 -1.4878017 3342849
0.27290416 0.033438034 -1.489597 3408641
0.27479202 0.1263524 -1.5395195 9590601
0.27482015 0.13105515 -1.5420513 9655883
0.27620173 0.13932031 -1.5464016 9591084
0.26936054 0.03491132 -1.4906555 3147009
0.26849574 0.038806714 -1.492819 3147777
0.26813725 0.12735122 -1.5405551 9589326
0.26949069 0.13091362 -1.5423735 9655893
0.26408741 0.044175275 -1.4960413 3015937
0.26414019 0.12724507 -1.5407968 9392979
0.26460308 0.13039213 -1.5424577 9393479
0.25966498 0.047192462 -1.4979976 2689025
0.25702846 0.051824413 -1.5006905 2492161
0.2570495 0.055351473 -1.5025893 2688013
0.2570706 0.058878534 -1.5044881 2884619
0.25881076 0.12710354 -1.5411189 9655903
0.25882483 0.12945488 -1.5423847 9590355
0.25437778 0.054105043 -1.5021173 2229250
0.25441295 0.059983484 -1.5052822 2687745
0.25310165 0.063475147 -1.5072615 3015425
0.25348139 0.12696204 -1.5414408 9655119
0.25350249 0.13048905 -1.5433397 9524300
0.24911165 0.064544685 -1.508136 2490881
0.24948433 0.12685591 -1.5416825 9588820
0.2495054 0.13038293 -1.5435812 9588598
0.246454 0.065649576 -1.5089301 2097665
0.24469626 0.068737619 -1.5107251 2162945
0.24548727 0.12674975 -1.5419241 9520458
0.24551541 0.13145244 -1.5444558 9785952
0.24419713 0.13376844 -1.5458024 9917777
0.24115267 0.070210777 -1.511784 1966340
0.23850206 0.072491422 -1.5132109 2490884
0.24018598 0.13131094 -1.5447779 9524558
0.24020004 0.13366228 -1.5460438 9589581
0.2349585 0.0739647 -1.5142695 2753025
0.23349613 0.12643135 -1.5426487 9064505
0.23484957 0.12999377 -1.5444671 9261896
0.22918969 0.074595116 -1.5150404 3605507
0.23083141 0.12636057 -1.5428098 8998975
0.22999474 0.13495868 -1.5475049 9588569
0.23090172 0.13811737 -1.5491393 9523024
0.22386026 0.074453637 -1.5153626 4786957
0.22387433 0.076804951 -1.5166284 5182228
0.22550198 0.12621906 -1.5431319 8997187
0.22419077 0.12971067 -1.5451113 9260103
0.22421187 0.13323772 -1.5470101 9653070
0.21958894 0.028495822 -1.490919 11370065
0.21961707 0.033198573 -1.4934508 7623996
0.21972257 0.050833821 -1.5029451 3015169
0.2184113 0.054325484 -1.5049244 3803649
0.21711412 0.060168512 -1.5081697 5182465
0.21713525 0.063695572 -1.5100687 5381377
0.21849573 0.068433657 -1.5125198 5382405
0.21897027 0.073540144 -1.5152357 5646345
0.21886837 0.13074487 -1.5460662 9456444
0.21844301 0.13386834 -1.5477809 9784649
0.2175782 0.13776359 -1.5499445 9524040
0.21760634 0.14246637 -1.5524763 9393742
0.21144718 0.0035941824 -1.4781102 6765336
0.21148935 0.010648303 -1.4819078 6631954
0.21425253 0.027178604 -1.4906082 5784381
0.21428061 0.031881347 -1.4931399 4981264
0.21446347 0.06244909 -1.5095967 5578753
0.2122066 0.13056794 -1.5464689 9326158
0.21356007 0.13413042 -1.548287 9391945
0.21358821 0.13883317 -1.5508189 9458250
0.21316987 0.14313224 -1.5531665 9654591
0.20875436 -0.001179304 -1.4757395 5049656
0.20954189 0.13049722 -1.5466298 9391707
0.20956302 0.13402426 -1.5485288 9458000
0.20959115 0.13872701 -1.5510606 9523527
0.20961928 0.14342976 -1.5535923 9851182
0.20964032 0.14695677 -1.5554912 10245936
0.20571697 -0.063561268 -1.4423541 6893621
0.20307332 -0.060105007 -1.444414 6496296
0.20317179 -0.043645449 -1.4532753 6300195
0.20320696 -0.037767015 -1.4564401 6236685
0.20323509 -0.033064269 -1.4589719 6300683
0.20592791 -0.02829078 -1.4613426 6102794
0.20594904 -0.02476372 -1.4632415 5966350
0.20602635 -0.011831224 -1.4702038 5510447
