# .PCD v0.7 - Point Cloud Data file format
VERSION 0.7
FIELDS x y z rgba
SIZE 4 4 4 4
TYPE F F F U
COUNT 1 1 1 1
WIDTH 515
HEIGHT 1
VIEWPOINT 0 0 0 1 0 0 0
POINTS 515
DATA ascii
0.12204004 -0.64368004 1.1340001 3413545
0.13836002 -0.65556288 1.153 3349299
0.14288037 -0.65636802 1.1570001 3281447
0.1514829 -0.66011143 1.161 3546408
0.14816573 -0.66011143 1.161 3413805
0.14779717 -0.65716285 1.161 3283743
0.1448486 -0.66011143 1.161 3280936
0.15698004 -0.66243333 1.169 3677967
0.15354651 -0.66062647 1.1666001 3285774
0.14978576 -0.65683818 1.1650001 3285274
0.15751719 -0.66693437 1.1730001 4071453
0.1591929 -0.66246575 1.1730001 3613219
0.16776922 -0.667714 1.177 4137504
0.16298652 -0.66831183 1.177 4073010
0.17208862 -0.67148292 1.1810001 4202278
0.17208862 -0.66810858 1.1810001 3744288
0.1698391 -0.67148292 1.1810001 4661535
0.18910766 -0.65791333 1.189 4531003
0.17551908 -0.67603141 1.189 3809832
0.17778385 -0.6726343 1.189 3744525
0.17551908 -0.66810477 1.189 3482918
0.17492861 -0.67150003 1.1850001 3678737
0.17380004 -0.6681143 1.1850001 3548191
0.18822894 -0.6616416 1.1930001 4334151
0.18860766 -0.65671813 1.1930001 4203055
0.18065433 -0.67716956 1.1930001 3221022
0.18065433 -0.67262477 1.1930001 4005670
0.17838195 -0.67830575 1.1930001 3352106
0.17838195 -0.67148858 1.1930001 3744814
0.17838195 -0.66807997 1.1930001 3614257
0.19038004 -0.67602003 1.197 4138529
0.19038004 -0.66804004 1.197 4335413
0.19038004 -0.65094 1.197 4466449
0.19038004 -0.64752001 1.197 4401455
0.18582003 -0.68058002 1.197 4008745
0.18696003 -0.67716002 1.197 4072989
0.18696003 -0.67373997 1.197 4072718
0.18696003 -0.66804004 1.197 4203062
0.18582004 -0.66234004 1.197 4007476
0.18582003 -0.65777999 1.197 3876131
0.18354003 -0.68058002 1.197 3484970
0.18354003 -0.67716002 1.197 3941413
0.18278003 -0.67222011 1.197 3875117
0.18278003 -0.66842002 1.197 3941424
0.18354005 -0.66234004 1.197 3876393
0.19232002 -0.6822781 1.202 4203053
0.19117527 -0.67655432 1.202 4138009
0.19117527 -0.67426479 1.202 4138533
0.18774098 -0.67426479 1.202 4072479
0.18774098 -0.64679044 1.202 4203293
0.1748267 -0.46698672 1.2320001 5125923
0.1748267 -0.4634667 1.2320001 5256757
0.12502286 -0.13007429 1.3260001 7024940
0.12502286 -0.12754858 1.3260001 6958624
0.12249716 -0.13007429 1.3260001 7088958
0.12249716 -0.12628572 1.3260001 7089185
0.11997145 -0.12628572 1.3260001 7285017
0.34396702 0.032657795 1.3360002 7811375
0.12723809 -0.14250667 1.3360001 7088141
0.12596571 -0.13614477 1.3360001 7482633
0.12596571 -0.13360001 1.3360001 7089947
0.34380764 0.034508586 1.342 7810612
0.34125143 0.037064776 1.342 7422510
0.33784318 0.038768902 1.342 7682357
0.33613905 0.043455251 1.342 7945029
0.33358285 0.052401919 1.342 8014434
0.32335809 0.065182872 1.342 8275022
0.24922857 -0.081798084 1.342 8870942
0.24922857 -0.077963799 1.342 9660204
0.24411617 -0.093300946 1.342 9395001
0.23900381 -0.10863809 1.342 7224609
0.1316438 -0.14698096 1.342 6496298
0.1316438 -0.14314666 1.342 6564364
0.12780952 -0.14698096 1.342 6759726
0.12823556 -0.13846032 1.342 7286020
0.34508857 0.037202876 1.3470001 7683117
0.34252289 0.039768588 1.3470001 6763586
0.34252289 0.043617159 1.3470001 7355997
0.33995715 0.043617159 1.3470001 7617355
0.33354288 0.044900019 1.3470001 8141624
0.33354288 0.047465734 1.3470001 7750208
0.33226004 0.052597161 1.3470001 7616848
0.33226004 0.055162877 1.3470001 7751510
0.3296943 0.052597161 1.3470001 7813439
0.3296943 0.056445733 1.3470001 8011089
0.3296943 0.060294304 1.3470001 8210536
0.2552886 -0.080820002 1.3470001 5513729
0.25614384 -0.072267607 1.3470001 7618612
0.25657144 -0.066708565 1.3470001 8674589
0.25272286 -0.07055714 1.3470001 9266252
0.24588099 -0.10220096 1.3470001 5512222
0.24630859 -0.097497143 1.3470001 6566176
0.23861144 -0.11802286 1.3470001 5312780
0.23732859 -0.11417428 1.3470001 6237735
0.23476288 -0.12315429 1.3470001 5180947
0.23390764 -0.11845048 1.3470001 5843208
0.23476288 -0.11417428 1.3470001 8206879
0.22877622 -0.12871332 1.3470001 3939087
0.22278956 -0.13897619 1.3470001 4659218
0.22321716 -0.13341714 1.3470001 5775900
0.21936859 -0.14367999 1.3470001 5445389
0.21851335 -0.13897619 1.3470001 5844238
0.21936859 -0.13341714 1.3470001 6239783
0.21423715 -0.15137714 1.3470001 4919063
0.18858004 -0.17831714 1.3470001 5646602
0.1834486 -0.18344857 1.3470001 5318148
0.13213432 -0.1770343 1.3470001 5445908
0.13341717 -0.17190287 1.3470001 5512455
0.13341716 -0.16677144 1.3470001 5775901
0.1321343 -0.16164002 1.3470001 6037295
0.13341716 -0.15650858 1.3470001 6232355
0.1321343 -0.15137716 1.3470001 6430242
0.12956858 -0.16164002 1.3470001 6037536
0.12956858 -0.15650858 1.3470001 6364953
0.12871334 -0.15094954 1.3470001 6628128
0.34808636 0.039057791 1.3520001 7884625
0.34636953 0.042491447 1.3520001 8347508
0.32190478 0.066956215 1.3520001 8011069
0.31718349 0.071677484 1.3520001 8010271
0.30516574 0.086270496 1.3520001 8141635
0.29228956 0.096571453 1.3520001 8732208
0.25366098 -0.077257134 1.3520001 8082487
0.25366098 -0.073394284 1.3520001 8868938
0.23305906 -0.12747428 1.3520001 4724993
0.23220065 -0.12404064 1.3520001 5579279
0.22533335 -0.13777524 1.3520001 4656662
0.21760763 -0.14550096 1.3520001 5706780
0.21760763 -0.14292571 1.3520001 5841421
0.21245715 -0.15708952 1.3520001 5377802
0.21245715 -0.15322666 1.3520001 5379073
0.13777526 -0.16610287 1.3520001 5907742
0.13520001 -0.16224 1.3520001 5972030
0.32203999 0.072426692 1.358 8471387
0.3168667 0.073720023 1.358 8009988
0.3168667 0.077600017 1.358 8342105
0.31341779 0.07803113 1.3580002 8076841
0.31428 0.081480011 1.358 8280652
0.30910668 0.082773343 1.358 8405560
0.30910668 0.086653344 1.358 8083535
0.30263999 0.087946676 1.358 8273749
0.30134666 0.091826677 1.358 8339805
0.29876 0.087946683 1.358 8536390
0.29703557 0.092688896 1.3580002 8601418
0.29100001 0.098293349 1.358 8667147
0.29100001 0.10217335 1.358 8669226
0.28841335 0.098293349 1.358 8668190
0.28712001 0.10217335 1.358 8866615
0.27806666 -0.024573321 1.358 8606251
0.13838667 -0.16295999 1.358 5907500
0.11769334 -0.11510666 1.358 7482909
0.11510668 -0.10993332 1.358 7877154
0.31284094 0.083078116 1.363 8670285
0.28168666 -0.016875224 1.363 6170881
0.28255206 0.10687653 1.3630002 8998686
0.28428286 0.11033811 1.363 8735015
0.27909049 -0.022067606 1.363 9791282
0.27779239 -0.01817332 1.363 10450497
0.27822512 0.11206891 1.3630002 9064473
0.27779239 0.1155305 1.363 9064758
0.11812668 -0.11293428 1.363 7679777
0.11553049 -0.1064438 1.363 7220765
0.11293429 -0.10514571 1.363 7287836
0.28706288 0.10640001 1.368 8867393
0.28098285 -0.0082514165 1.368 3540737
0.28272 0.11204573 1.368 8801561
0.27750856 -0.0078171315 1.368 3936513
0.27490285 -0.013028559 1.368 10512938
0.27490285 0.11334859 1.368 9392935
0.27490285 0.11856002 1.368 9393462
0.2731657 0.12203431 1.368 9392682
0.27229714 0.12637715 1.368 9922137
0.2670857 -0.0078171315 1.368 10319680
0.26274288 0.13245715 1.368 9589837
0.26187429 0.13680001 1.368 10120058
0.25666285 0.14201145 1.368 10055227
0.25231999 0.14288004 1.368 9393755
0.11856002 -0.11074284 1.368 7941399
0.11856002 -0.10813714 1.368 7351054
0.11595429 -0.10292571 1.368 6761762
0.11334858 -0.10162285 1.368 6959384
0.11204572 -0.096411422 1.368 6760459
0.27349144 -0.011777132 1.3740001 10319417
0.27218288 -0.0078514162 1.3740001 9191952
0.27087432 0.11908001 1.3740001 9524526
0.27087432 0.12300574 1.3740001 9131312
0.27087432 0.12693144 1.3740001 9196886
0.26564002 -0.0065428456 1.3740001 10450500
0.26651239 -0.0021809409 1.3740001 7417631
0.26825714 0.12431432 1.3740001 9262151
0.26825714 0.12824 1.3740001 9458784
0.26302287 -0.0013085599 1.3740001 9789756
0.26040575 0.13478288 1.3740001 9197130
0.26040575 0.13740002 1.3740001 9656671
0.12169716 -0.10861143 1.3740001 6760449
0.11908001 -0.10599428 1.3740001 6760727
0.11646286 -0.10076 1.3740001 6565156
0.11646286 -0.09683428 1.3740001 6365990
0.11646286 -0.091599993 1.3740001 6168351
0.11646286 -0.087674282 1.3740001 6037268
0.11908 -0.071971424 1.3740001 5709319
0.11384573 -0.091599993 1.3740001 6431764
0.11253715 -0.086365707 1.3740001 6235922
0.26266667 0.0026266782 1.3790001 6629395
0.25872669 0.0039400114 1.3790001 8673331
0.12214001 -0.10637999 1.3790001 6300944
0.12214001 -0.077486664 1.3790001 5577986
0.12214001 -0.073546663 1.3790001 5709057
0.12214001 -0.068293326 1.3790001 5905924
0.11951335 -0.10375333 1.3790001 6496801
0.11688668 -0.085366659 1.3790001 5904910
0.11688667 -0.081426665 1.3790001 5579528
0.1182 -0.077486664 1.3790001 5577989
0.11776223 -0.073984444 1.3790001 5839881
0.11951334 -0.064353332 1.3790001 6103049
0.11426001 -0.085366659 1.3790001 6103310
0.11426 -0.081426665 1.3790001 5841670
0.11426 -0.077486664 1.3790001 6101514
0.11426 -0.074859999 1.3790001 6429198
0.25721431 0.0039571542 1.3850001 10905652
0.25721431 0.0065952498 1.3850001 8141844
0.25721431 0.01187144 1.3850001 3539201
0.25457621 0.0039571542 1.3850001 10582326
0.25457621 0.0079142973 1.3850001 8668189
0.24754131 0.14817303 1.3850001 9851157
0.24798097 0.15300955 1.3850001 9524546
0.24666193 0.1569667 1.3850001 9134173
0.24402381 0.014509535 1.3850001 10386213
0.14641429 0.091014303 1.3850001 2818563
0.12530953 -0.059357144 1.3850001 5906447
0.12179208 -0.10244603 1.3850001 5971746
0.12091272 -0.098049209 1.3850001 5972003
0.12003335 -0.092333339 1.3850001 5905168
0.12003335 -0.088376187 1.3850001 5840140
0.12003335 -0.081780948 1.3850001 5316100
0.12267143 -0.063314281 1.3850001 5971717
0.12267143 -0.058038097 1.3850001 6103566
0.12267143 -0.046166666 1.3850001 6236217
0.25284764 0.0039714398 1.3900001 10318668
0.25152382 0.0079428684 1.3900001 10447177
0.24755239 0.0079428684 1.3900001 10186578
0.24755239 0.013238108 1.3900001 10376988
0.24358097 0.15356193 1.3900001 9720639
0.14694287 0.09399049 1.3900001 3015170
0.13767621 0.056923822 1.3900001 6039568
0.13238096 0.01720953 1.3900001 5711619
0.13238096 0.022504767 1.3900001 5578023
0.12576191 -0.05692381 1.3900001 5972500
0.12576191 -0.052952383 1.3900001 6038034
0.12708572 -0.046333335 1.3900001 6105137
0.12576191 -0.035742857 1.3900001 6433325
0.12576191 -0.031771425 1.3900001 6366234
0.1231143 -0.096638098 1.3900001 5905684
0.1231143 -0.093990475 1.3900001 5709057
0.12046669 -0.08604762 1.3900001 5774856
0.12311429 -0.052952383 1.3900001 6235910
0.12311429 -0.048980951 1.3900001 6170398
0.12311429 -0.043685712 1.3900001 6302749
0.12311429 -0.037066665 1.3900001 6563377
0.2459619 0.15821335 1.396 9327438
0.2459619 0.16220193 1.396 9855059
0.24064381 0.022601916 1.396 7484417
0.24064381 0.025260963 1.396 5046529
0.24330285 0.15821335 1.396 9589322
0.24153017 0.16175877 1.3960001 9326675
0.23798476 0.022601916 1.396 10119229
0.23798476 0.025260963 1.396 9450527
0.23665524 0.16220193 1.396 9851204
0.14757715 0.082430482 1.396 3014956
0.14225906 0.062487625 1.396 7426884
0.14225906 0.073123813 1.396 5251623
0.14358857 0.07844191 1.396 5177867
0.14358857 0.082430482 1.396 4588557
0.13694096 0.042544767 1.396 4787239
0.13827047 0.047862865 1.396 5514774
0.13782731 0.053624131 1.3960001 5644046
0.13827047 0.059828579 1.396 5838868
0.13827047 0.062487625 1.396 5640978
0.13827047 0.066476196 1.396 5902612
0.13827047 0.071794294 1.396 5835296
0.13827047 0.077112384 1.396 5770781
0.13871366 0.081987314 1.3960001 5771794
0.13162287 -0.037226662 1.396 6105900
0.13162287 -0.031908564 1.396 6431519
0.13162287 0.0066476245 1.396 5972489
0.13295239 0.019942863 1.396 5512469
0.13162287 0.026590481 1.396 5905446
0.13295238 0.031908579 1.396 5774371
0.13295239 0.037226677 1.396 5643027
0.13162287 0.042544767 1.396 5709340
0.13295239 0.051851436 1.396 5644308
0.1342819 0.066476196 1.396 6035722
0.1342819 0.071794294 1.396 6231589
0.12630476 -0.049192376 1.396 6038051
0.12630476 -0.042544756 1.396 6302480
0.12807748 -0.037669837 1.3960001 6302486
0.12896381 -0.031908564 1.396 6431241
0.12719111 -0.027033648 1.3960001 6366236
0.12630476 -0.022601899 1.396 6301465
0.12630476 -0.018613329 1.396 6300944
0.12630476 -0.013295232 1.396 6497808
0.12896381 0.0079771485 1.396 5972489
0.12896381 0.01196572 1.396 5841162
0.12364572 -0.041215234 1.396 6433281
0.24434857 0.16423431 1.4020001 8805203
0.24345842 0.16779496 1.4020002 9855829
0.23900762 0.028040012 1.4020001 5701889
0.23722731 0.16779496 1.4020002 9784383
0.23633713 0.17358096 1.4020001 9853749
0.23366667 0.033380967 1.4020001 5374209
0.23366667 0.16957526 1.4020001 9785638
0.23233141 0.17224573 1.4020001 9720071
0.23099618 0.17758669 1.4020001 9919314
0.23099618 0.18025716 1.4020001 10115677
0.22832569 0.17491621 1.4020001 9656378
0.22699048 0.17758669 1.4020001 9721694
0.22743554 0.18114732 1.4020002 9918313
0.20829715 0.19761525 1.4020001 9657925
0.14821143 0.072102867 1.4020001 11370065
0.14821143 0.077443816 1.4020001 7623996
0.1402 0.044062868 1.4020001 6765336
0.1402 0.052074295 1.4020001 6631954
0.14287049 0.070767634 1.4020001 5784381
0.14287049 0.076108582 1.4020001 4981264
0.13752952 0.038721912 1.4020001 5049656
0.13485906 -0.032045707 1.4020001 6893621
0.13218857 -0.028039996 1.4020001 6496296
0.13218857 -0.0093466612 1.4020001 6300195
0.13218857 -0.0026704706 1.4020001 6236685
0.13218857 0.0026704823 1.4020001 6300683
0.13485906 0.0080114342 1.4020001 6102794
0.13485906 0.012017149 1.4020001 5966350
0.13485906 0.026704768 1.4020001 5510447
0.12951809 -0.042727612 1.4020001 6040337
0.12951809 -0.025369518 1.4020001 6366507
0.12951809 -0.022699043 1.4020001 6367257
0.12951809 -0.013352376 1.4020001 6498077
0.12951809 -0.0080114231 1.4020001 5973795
0.12951809 -0.0026704709 1.4020001 6235912
0.12951809 0.002670482 1.4020001 6431491
0.24253999 0.17152001 1.4070001 10316147
0.23718001 0.028140012 1.4070001 7812865
0.23718001 0.03082001 1.4070001 5505281
0.23986 0.17152001 1.4070001 9853004
0.23986 0.17554002 1.4070001 10055267
0.23316 0.03216001 1.4070001 8465932
0.23360667 0.17643334 1.4070001 9852998
0.22914001 0.033500012 1.4070001 10316848
0.22645999 0.036180012 1.4070001 10050864
0.22645998 0.18358001 1.4070001 9983603
0.22645998 0.18626003 1.4070001 10186089
0.22378001 0.038860012 1.4070001 10115371
0.22110002 0.042880014 1.4070001 8737558
0.22288667 0.18268669 1.4070001 9850684
0.22377999 0.18626003 1.4070001 10049607
0.21842 0.044220015 1.4070001 9790765
0.21708001 0.04824001 1.4070001 7943441
0.21752666 0.18715335 1.4070001 9916996
0.21306001 0.048240006 1.4070001 10709047
0.21172 0.19296002 1.4070001 9786945
0.21305999 0.19698003 1.4070001 9659482
0.20502 0.19966002 1.4070001 9656152
0.20502 0.20234002 1.4070001 9721428
0.14606 0.068340011 1.4070001 8814180
0.14606 0.072360016 1.4070001 8416325
0.14606 0.076380014 1.4070001 6959873
0.14338002 0.067000009 1.4070001 6573376
0.13534001 0.001340006 1.4070001 6499607
0.13266 -0.025459995 1.4070001 6430264
0.13266 -0.021439996 1.4070001 6432024
0.13266 -0.017419994 1.4070001 6432017
0.13266 -0.013399995 1.4070001 6432792
0.13266 -0.0066999947 1.4070001 6105112
0.12998 -0.020099996 1.4070001 6366471
0.12998 -0.017419994 1.4070001 6366479
0.23639718 0.026465729 1.4130001 10317373
0.23146287 0.028260011 1.4130001 10710873
0.23146287 0.030951438 1.4130001 10904633
0.22742572 0.032297157 1.4130001 10842717
0.22473431 0.032297157 1.4130001 10842710
0.22338858 0.037680015 1.4130001 10710603
0.22204286 0.18840002 1.4130001 9983272
0.21935144 0.039025731 1.4130001 10715234
0.21755716 0.042614304 1.4130001 10648406
0.21665999 0.18974574 1.4130001 9916752
0.21665999 0.19243717 1.4130001 9982032
0.21396859 0.043062869 1.4130001 10780245
0.21396858 0.18974574 1.4130001 9918271
0.20589429 0.061902869 1.4130001 6232834
0.20230572 0.062351443 1.4130001 9852984
0.20185713 0.1964743 1.4130001 9787169
0.20185713 0.20185716 1.4130001 9458756
0.20051143 0.20724003 1.4130001 10118250
0.19782001 0.063248582 1.4130001 11760711
0.19782001 0.067285724 1.4130001 8931362
0.19781999 0.20724003 1.4130001 9590627
0.18167144 0.07805144 1.4130001 11102298
0.18167143 0.21666002 1.4130001 9457718
0.13591716 0.0040371493 1.4130001 6498832
0.13726285 0.23684573 1.4130001 10250333
0.13591714 0.24088287 1.4130001 11173221
0.2216343 0.033785727 1.419 10777164
0.2216343 0.036488581 1.419 10713171
0.21757999 0.037840012 1.419 10582887
0.20136285 0.060814291 1.419 10777222
0.2040657 0.20812002 1.419 10646624
0.19595714 0.063517153 1.419 11304778
0.19595714 0.067571439 1.419 10051907
0.19730856 0.20406573 1.419 9195344
0.19595712 0.20812002 1.419 9786716
0.19595712 0.2121743 1.419 10382409
0.19325429 0.063517153 1.419 10845007
0.19235334 0.068021916 1.419 11235659
0.19055143 0.072977148 1.419 9525804
0.19190283 0.20271429 1.419 9720909
0.19190285 0.20812003 1.419 9983826
0.19055142 0.21352573 1.419 9525600
0.18784857 0.072977148 1.419 11563327
0.18514571 0.079734296 1.419 9590312
0.18649712 0.20947145 1.419 10049610
0.18649712 0.21352573 1.419 9392462
0.18244284 0.20947145 1.419 9786936
0.17838857 0.21352573 1.419 9719845
0.17838855 0.21758001 1.419 9719859
0.17703713 0.22028288 1.419 9916227
0.17298284 0.21758001 1.419 9786177
0.17433427 0.22163431 1.419 9983517
0.16712664 0.22208476 1.419 9589806
0.16757713 0.22568858 1.419 9720122
0.15271142 0.11216858 1.419 3278361
0.14325142 0.2324457 1.419 9852234
0.14280094 0.23740098 1.419 10383716
0.13243999 0.23785144 1.419 10180945
0.13243999 0.24190572 1.419 10779232
0.19135715 0.066500008 1.4250001 11040349
0.19407143 0.21307145 1.4250001 9918796
0.19407143 0.21578574 1.4250001 9793386
0.18864286 0.069214292 1.4250001 11433045
0.18592857 0.077357158 1.4250001 10381903
0.17507143 0.085500009 1.4250001 11105881
0.17235713 0.22257145 1.4250001 9916961
0.16692857 0.10992858 1.4250001 459009
0.16964285 0.22121429 1.4250001 9720883
0.16421428 0.10992858 1.4250001 524545
0.16285715 0.11264287 1.4250001 983297
0.16421427 0.21850002 1.4250001 9850429
0.16285713 0.22257143 1.4250001 9917513
0.16285713 0.22800002 1.4250001 9984581
0.15607144 0.10992858 1.4250001 852241
0.15878572 0.11264287 1.4250001 1245698
0.15788095 0.22211906 1.4250001 9916745
0.15335715 0.10992858 1.4250001 2884386
0.15064284 0.22664286 1.4250001 10114626
0.15064284 0.23342858 1.4250001 10182749
0.14792857 0.22935715 1.4250001 9982542
0.14792857 0.23342858 1.4250001 10049627
0.12621428 0.23750001 1.4250001 10113612
0.12757142 0.24157143 1.4250001 10310740
0.12169047 0.24111906 1.4250001 9916752
0.11807142 0.24564287 1.4250001 10114901
0.18671145 0.074957162 1.4310001 11237713
0.17308287 0.094037153 1.4310001 11306283
0.17172001 0.098125726 1.4310001 10577211
0.17035715 0.10357716 1.4310001 5841940
0.17035715 0.10766573 1.4310001 262401
0.1594543 0.11039145 1.4310001 721153
0.15672857 0.22487144 1.4310001 9917250
0.15809143 0.22759716 1.4310001 9983558
0.15809143 0.23168573 1.4310001 9787987
0.15809143 0.23577431 1.4310001 10646902
0.15400288 0.10766573 1.4310001 2490641
0.15400286 0.22487144 1.4310001 9786175
0.15400286 0.22759716 1.4310001 10049085
0.15309429 0.23123145 1.4310001 9981766
0.15400286 0.23577431 1.4310001 10449517
0.12402 0.24395144 1.4310001 9982294
0.12402 0.24667716 1.4310001 10709342
0.11039143 0.24667716 1.4310001 10245713
0.10766572 0.24667716 1.4310001 10375234
0.17107143 0.094431438 1.437 11304013
0.17107143 0.09716858 1.437 11632717
0.16742192 0.10720477 1.437 1704193
0.16286001 0.1108543 1.437 655617
0.15738572 0.10811715 1.437 393481
0.15464857 0.10538001 1.437 2294017
0.12180285 0.24771143 1.437 10379358
0.12317142 0.25044858 1.437 11239018
0.11632857 0.24771143 1.437 10114893
0.11769714 0.25044858 1.437 10581611
0.11359143 0.24771143 1.437 10114895
0.11222286 0.25181717 1.437 10513007
0.10674856 0.25181717 1.437 10312792
0.10811713 0.25729144 1.437 11238236
0.18552858 0.075585723 1.4430001 10908255
0.16903715 0.10169715 1.4430001 10378282
0.16628858 0.10582002 1.4430001 2556161
0.16262382 0.1076524 1.4430002 196865
0.15804286 0.10582002 1.4430001 786689
0.10581999 0.25836572 1.4430001 11041107
0.16974002 0.096600018 1.4490001 11500627
0.16698001 0.10350002 1.4490001 4981010
0.16767143 0.098385721 1.455 9075784
0.16767143 0.10115715 1.455 7028259
0.1649 0.10254287 1.455 1704205
0.16212857 0.10670001 1.455 459009
0.15797144 0.10392858 1.455 1638657
0.16558 0.09740001 1.4610001 7619913
0.1600143 0.093225732 1.4610001 919852
0.16094193 0.097863823 1.4610002 2031903
0.16186954 0.10250192 1.4610002 1376513
0.15723144 0.093225732 1.4610001 1769729
0.15723144 0.09740001 1.4610001 1966337
0.15723144 0.1015743 1.4610001 2097409
0.16346572 0.096402869 1.4670001 4925259
0.16694 0.093991436 1.473 11234658
0.16413429 0.093991436 1.473 6049111
