# .PCD v0.7 - Point Cloud Data file format
VERSION 0.7
FIELDS x y z rgba
SIZE 4 4 4 4
TYPE F F F U
COUNT 1 1 1 1
WIDTH 1120
HEIGHT 1
VIEWPOINT 0 0 0 1 0 0 0
POINTS 1120
DATA ascii
-0.022771811 -0.49759591 -0.9563334 3744302
-0.022564346 -0.49298215 -0.95725006 3483691
-0.022548908 -0.4886452 -0.95800018 3614747
-0.017800743 -0.51180214 -0.95500004 3743788
-0.017281013 -0.50751424 -0.95500004 3546665
-0.017281013 -0.5029667 -0.95500004 3680052
-0.017281013 -0.49750954 -0.95500004 3877143
-0.017294347 -0.49239525 -0.95566666 3941395
-0.017335303 -0.48812383 -0.95800006 3875352
-0.016422922 -0.4844743 -0.95800006 4203797
-0.013036571 -0.50236034 -0.9550001 3352381
-0.011823872 -0.49750954 -0.95500004 3680537
-0.011845142 -0.49290928 -0.95666677 3811363
-0.011861015 -0.48812383 -0.95800006 3811895
-0.010036253 -0.4844743 -0.95800006 3746327
-0.010020566 0.14211001 -0.95650005 9392965
-0.0075794267 -0.49629685 -0.9550001 3746606
-0.0072762524 -0.49205238 -0.95500004 3549988
-0.0074815867 -0.48848876 -0.95800012 3418145
-0.0067476826 -0.48343983 -0.95740002 4204066
-0.0063867299 -0.47900003 -0.95800006 4269364
-0.0072762799 0.14370477 -0.95500004 9784385
-0.0072991382 0.14598095 -0.95800006 9784893
-0.0045619686 -0.4698762 -0.95800006 3876876
-0.0045477091 0.14825238 -0.95500004 9916741
-0.022660336 -0.48266631 -0.96271437 4074021
-0.022011492 -0.47966573 -0.96300006 4139020
-0.019240063 -0.48558003 -0.96200001 4138278
-0.017179349 -0.48260218 -0.96200007 4007450
-0.017163739 -0.47835553 -0.96300018 3875627
-0.015591492 -0.47324574 -0.96300006 4138544
-0.012813396 -0.48599145 -0.96100003 3943205
-0.011900909 -0.48244157 -0.96122223 3746345
-0.01192292 -0.47783142 -0.96300018 3811115
-0.011693636 -0.47255787 -0.96300018 4139324
-0.010700064 -0.46743715 -0.96300006 3812137
-0.011464349 -0.46453288 -0.96300006 3285534
-0.0082372064 -0.4823305 -0.96100008 4138807
-0.0073276828 -0.47717047 -0.96166676 4334891
-0.0073321275 -0.47200036 -0.96233338 4007724
-0.0073372065 -0.46774286 -0.96300006 4072996
-0.0073338733 -0.46383289 -0.96250004 3679767
-0.0064200643 -0.45857143 -0.96300006 3875859
-0.0076270746 0.14857367 -0.96100008 9785658
-0.0068753287 0.15262571 -0.96250004 9654333
-0.0045810435 0.15392095 -0.96200001 9523276
-0.022798277 -0.47227824 -0.967125 4206122
-0.018400064 -0.47656 -0.96600002 4136760
-0.017710064 -0.47172999 -0.96600002 4139054
-0.017751494 -0.46717191 -0.96642864 4073233
-0.017357208 -0.46276024 -0.96845454 4007203
-0.016303875 -0.45742953 -0.96900004 4597548
-0.013186731 -0.47073334 -0.96600002 4009004
-0.013800065 -0.46827999 -0.96600002 3616029
-0.012148635 -0.46236891 -0.96763641 3614258
-0.011997208 -0.45773715 -0.96900004 4334906
-0.012920065 -0.45496857 -0.96900004 4071463
-0.010120092 0.14812002 -0.96600002 9588534
-0.0076667313 -0.4621467 -0.96600002 3679511
-0.0075492072 -0.45715484 -0.96660006 4006177
-0.0071943505 -0.45321032 -0.9684 4136504
-0.006460066 -0.44758576 -0.96900004 4270138
-0.0083058057 0.15411715 -0.96900004 9524020
-0.0073829493 0.15688571 -0.96900004 9588537
-0.003022922 -0.45671433 -0.96600008 4007467
-0.0039915205 0.15871143 -0.96700001 9785153
-0.022217209 -0.46008003 -0.97200006 4202768
-0.022640066 -0.45346993 -0.97314292 4334868
-0.021335304 -0.44989523 -0.97400004 4467490
-0.021335306 -0.44154668 -0.97400004 4269358
-0.021335306 -0.43876383 -0.97400004 4073509
-0.018514352 -0.46008003 -0.97200006 4860198
-0.018051494 -0.45684004 -0.97200006 4204068
-0.017593082 -0.4527778 -0.97222221 4203307
-0.017614035 -0.44773334 -0.97333336 4335663
-0.017852686 -0.44259262 -0.97375 4400179
-0.017432829 -0.43709907 -0.97360009 4204073
-0.015769592 -0.43319812 -0.97400004 4204814
-0.010182923 -0.45637718 -0.97200006 4988717
-0.012034351 -0.45267433 -0.972 4136759
-0.012034351 -0.44712004 -0.972 3876168
-0.012034351 -0.4424915 -0.97200006 4139336
-0.011876949 -0.43759677 -0.97290915 4074808
-0.013900067 -0.43367907 -0.97300005 3943971
-0.012774949 0.14755885 -0.97200006 9062970
-0.012034377 0.15237258 -0.97200006 9194017
-0.011121044 0.15660667 -0.97300005 9261088
-0.0083314935 -0.45174861 -0.97200006 4268860
-0.0078686364 -0.44665718 -0.97200006 4204611
-0.0075943517 -0.44211698 -0.97240001 4664388
-0.0072865975 -0.43730944 -0.97371441 4139560
-0.0064933999 -0.43319812 -0.97400004 3680542
-0.0083315196 0.15829715 -0.97200006 9588532
-0.0072301878 0.16182971 -0.97320002 9718834
-0.0046286634 0.16385144 -0.97200006 9915670
-0.022331495 -0.44755906 -0.97700012 4269612
-0.022331495 -0.43732384 -0.97700006 3876890
-0.022331495 -0.4345324 -0.97700006 4008490
-0.018051308 -0.43341586 -0.97700006 4138273
-0.011475941 -0.43298161 -0.97700012 3878190
-0.012096284 0.15352859 -0.97700006 9195293
-0.011165808 0.15725049 -0.97700006 9261091
-0.010235332 0.16097239 -0.97700006 9457198
-0.007629971 -0.43229929 -0.97700006 3680813
-0.0074438765 -0.42894956 -0.97700006 4139553
-0.0065134261 0.16655524 -0.97700006 9915702
-0.0046524736 0.16841619 -0.97700006 9981760
-0.02240007 -0.43213332 -0.98000002 4400689
-0.022434829 -0.42718434 -0.98150003 4598317
-0.022281399 -0.42259642 -0.98299998 4599315
-0.021532448 -0.41847718 -0.98300004 4334892
-0.017733403 -0.43120003 -0.98000002 3942451
-0.017981019 -0.42709166 -0.98074996 4402489
-0.017765464 -0.4222714 -0.98166668 4533282
-0.017499387 -0.41739485 -0.98171437 4074291
-0.017245783 -0.41294673 -0.98257142 4401731
-0.012506734 -0.43101335 -0.98000002 4140337
-0.012133401 -0.42746669 -0.98000002 4336946
-0.012133401 -0.4228 -0.97999996 4073794
-0.0121334 -0.4172 -0.97999996 3942193
-0.012140545 -0.41274333 -0.98049998 4467506
-0.011969022 -0.40824017 -0.98180008 4140083
-0.010298164 -0.40349808 -0.98300004 4861005
-0.011683903 0.16218048 -0.98150003 9260841
-0.0074667339 -0.42746669 -0.98000002 4596252
-0.0074667344 -0.4228 -0.98000002 4333620
-0.0074667339 -0.41720003 -0.98000002 4401210
-0.0074667339 -0.41253334 -0.98000002 4205107
-0.0073362584 -0.4075101 -0.98042858 4204342
-0.0076716873 -0.4028762 -0.98240006 4466487
-0.0073023546 -0.39825544 -0.98299998 3878450
-0.0074767601 0.16732524 -0.98150003 9784127
-0.0065534273 0.17132287 -0.98300004 10111817
-0.0031734004 -0.42728004 -0.98000002 4401203
-0.0031831162 -0.40274915 -0.98299998 4204332
-0.0037448304 -0.39788097 -0.98300004 3876899
-0.0034223152 0.17266667 -0.98000002 9982283
-0.022701975 -0.41707721 -0.98500007 4334635
-0.022744829 -0.41295162 -0.98680001 4597810
-0.022439117 -0.40779173 -0.98757142 4269881
-0.022582926 -0.40366858 -0.98800004 4664886
-0.019700069 -0.41276193 -0.98500007 4532029
-0.017851975 -0.40775102 -0.98650002 4270893
-0.017878165 -0.4027276 -0.98800004 4468018
-0.017878167 -0.39896381 -0.98800004 4468784
-0.013133402 -0.40619525 -0.98500007 4403261
-0.01242983 -0.40220833 -0.98500007 4795970
-0.012221338 -0.39761874 -0.98700005 4665396
-0.010821023 -0.39237717 -0.98800004 4927296
-0.010350546 -0.38767239 -0.98800004 4533304
-0.010319142 0.16604286 -0.98500007 9522227
-0.0084429253 -0.39681432 -0.98500007 4206926
-0.0076425178 -0.39269531 -0.98542869 4468020
-0.0073354985 -0.38799983 -0.9874 4337710
-0.0065867365 -0.38296765 -0.98800009 4469557
-0.0084686652 0.16843048 -0.98800004 9718849
-0.0078413645 0.17219429 -0.98800009 9849931
-0.022651501 -0.40206286 -0.99100006 4337208
-0.022651503 -0.39734384 -0.99100012 4469317
-0.022674356 -0.39207429 -0.99200004 4665645
-0.022503311 -0.38709563 -0.99280006 4994082
-0.017932454 -0.39640003 -0.99100012 4665375
-0.017932454 -0.39262474 -0.99100012 4730673
-0.017959597 -0.38754481 -0.99250019 4601640
-0.016093405 -0.38339999 -0.99400002 4665654
-0.016093405 -0.37961331 -0.99400002 5124676
-0.013213403 -0.39545622 -0.99100006 4862248
-0.013528007 -0.39231014 -0.99100006 4928329
-0.012982809 -0.38734323 -0.99137515 4665649
-0.012049 -0.3824394 -0.99212503 4730676
-0.012535547 -0.37767094 -0.99325007 4665662
-0.010779499 -0.37272343 -0.99280006 4928056
-0.010413404 -0.36730668 -0.99400002 5060165
-0.010413404 -0.36446667 -0.99400002 5060662
-0.010381999 0.16894192 -0.99100006 9588022
-0.010397713 0.17203477 -0.99250007 9588029
-0.010413427 0.17513333 -0.99400002 9588041
-0.0084943557 -0.38601813 -0.99100006 4533299
-0.0080224508 -0.38177094 -0.99100006 4666187
-0.0075505469 -0.37752384 -0.99100006 4927534
-0.007556261 -0.37214023 -0.99175012 4731184
-0.0075734048 -0.36730668 -0.99400002 4994616
-0.0078889597 -0.36383557 -0.99400008 4995374
-0.0084943799 0.17460477 -0.99100006 9784402
-0.0075634276 0.17770477 -0.99250007 9719636
-0.0077627613 0.182328 -0.99400008 9719623
-0.0030674515 -0.37280479 -0.99100012 4467505
-0.0047191423 0.17838001 -0.99100006 9851477
-0.0031499362 0.18234001 -0.9920001 9917508
-0.022313882 -0.38313287 -0.99700004 4664626
-0.018583613 -0.38265809 -0.9970001 4861497
-0.017769733 -0.37750354 -0.9970001 4730687
-0.016141977 -0.37221336 -0.99700004 4991537
-0.016141977 -0.36841524 -0.99700004 4732219
-0.016141977 -0.36366764 -0.99700004 4927804
-0.014242928 -0.3750619 -0.99700004 4927288
-0.013293405 -0.37221336 -0.99700004 5254713
-0.013293405 -0.36841524 -0.99700004 4863054
-0.010444834 -0.36271811 -0.99700004 5126957
-0.010444834 -0.35986954 -0.99700004 5192782
-0.012343905 0.16996478 -0.99700004 9260844
-0.01297692 0.17312984 -0.9970001 9194295
-0.011964095 0.17756096 -0.99700004 9325640
-0.010444858 0.1832581 -0.99700004 9655360
-0.0072797542 -0.3624016 -0.9970001 5059634
-0.0066467617 0.18515715 -0.99700004 9850946
-0.0034816824 0.18705621 -0.9970001 9983045
-0.022857213 -0.37809524 -1 4466505
-0.022881024 -0.3727524 -1.001 4271651
-0.022857213 -0.36761907 -1 4141351
-0.022869119 -0.36303854 -1.0005001 4402480
-0.022477217 -0.35732749 -1.0012859 4533293
-0.021970551 -0.35248283 -1.0030001 4139808
-0.02197055 -0.34770668 -1.0030001 4336163
-0.02197055 -0.3429305 -1.0030001 4402985
-0.021970551 -0.33719903 -1.0030001 4402725
-0.021015311 -0.33337808 -1.003 4468007
-0.019047689 -0.37619048 -1 4599601
-0.019047691 -0.37238097 -1 4533545
-0.018476263 -0.36742857 -1 4535091
-0.018333403 -0.36261901 -1 4862006
-0.017870072 -0.35764739 -1.0007501 4205599
-0.017194359 -0.35248286 -1.0030001 4270883
-0.017194359 -0.34770668 -1.003 4204081
-0.017185312 -0.34275955 -1.0025001 4271159
-0.017194359 -0.33719906 -1.0030001 4075048
-0.017194359 -0.33337808 -1.003 4664359
-0.013333405 -0.36666667 -1 4798013
-0.013333405 -0.3628571 -1 4928829
-0.012385787 -0.3572613 -1.0003334 4928314
-0.012649119 -0.35245734 -1.0022501 4731184
-0.012136265 -0.3478173 -1.0021429 4533814
-0.012656977 -0.3431693 -1.0030001 4795956
-0.012223978 -0.33747911 -1.0027002 4796443
-0.012418168 -0.33290046 -1.003 4861221
-0.012381047 0.17809524 -1 9326144
-0.010476287 0.18190476 -1 9588549
-0.0076191192 -0.36095238 -1 5255485
-0.0076191202 -0.35714287 -1 5123894
-0.0076191197 -0.35238093 -1 4926777
-0.0076191197 -0.34761906 -1 4861500
-0.0076255491 -0.34311357 -1.0007501 5255995
-0.0076312632 -0.33764642 -1.0015001 5386799
-0.0073235654 -0.33274126 -1.003 5058107
-0.0066867624 0.18818191 -1.003 9916744
-0.0038095952 -0.36095238 -1 5058873
-0.0031293235 -0.35714287 -1 4796211
-0.0030491205 -0.33781454 -1.0003 5321514
-0.022310007 -0.33191156 -1.006 4271147
-0.022036266 -0.32766858 -1.006 4466994
-0.022036262 -0.32287812 -1.0060002 4400937
-0.0218246 -0.31776261 -1.00725 4597784
-0.020928076 -0.31238401 -1.008 4796991
-0.017245786 -0.33150095 -1.006 4402216
-0.017245786 -0.32766858 -1.006 4401708
-0.017245788 -0.32287812 -1.006 4203814
-0.017257854 -0.31733906 -1.0066667 4204821
-0.017269282 -0.31179303 -1.0073334 4468010
-0.012455312 -0.33130932 -1.006 4468016
-0.012455313 -0.32766858 -1.006 4402489
-0.012455312 -0.32287812 -1.0060002 4402472
-0.012455312 -0.31712952 -1.0060002 4271650
-0.012707218 -0.31192908 -1.007 4927020
-0.014400075 -0.30815998 -1.008 4730404
-0.0079842005 -0.33118159 -1.006 4861508
-0.007664836 -0.32766858 -1.006 4861506
-0.0076670586 -0.32298449 -1.0063334 4862238
-0.0076692803 -0.31733906 -1.0066667 4796212
-0.0076800743 -0.31296 -1.008 5189942
-0.008640076 -0.29471999 -1.008 4401711
-0.0067200963 0.19104001 -1.008 9982278
-0.0032575978 -0.33130932 -1.006 5125182
-0.0035200741 -0.31264001 -1.0080001 5059651
-0.0047905575 -0.15712762 -1.006 4134667
-0.0036457956 -0.1529021 -1.0072001 5317393
-0.0038353347 0.19181049 -1.007 10048840
-0.022161663 -0.30735335 -1.0116668 5190963
-0.022204841 -0.30216852 -1.0136667 5190709
-0.021245791 -0.29743999 -1.0140001 5256775
-0.022211507 -0.29261142 -1.0140001 5323308
-0.021245791 -0.28778285 -1.0140001 5454632
-0.02165967 -0.28267837 -1.0140001 5782576
-0.021245791 -0.27909145 -1.0140001 6241076
-0.017331503 -0.30715144 -1.0110002 4599334
-0.017331503 -0.30233717 -1.011 4794918
-0.017349601 -0.29781622 -1.0120001 4796707
-0.017545793 -0.29247716 -1.0122001 4862248
-0.017149789 -0.28768 -1.0116001 4927768
-0.017349601 -0.28239715 -1.0120001 5190195
-0.016887935 -0.27743644 -1.01325 5452601
-0.016417222 -0.27329713 -1.0140001 5519162
-0.010591503 -0.31100285 -1.011 5320242
-0.012276503 -0.30691075 -1.011 4796462
-0.01251722 -0.30233717 -1.0110002 4599333
-0.012517218 -0.29752287 -1.011 4271662
-0.012517218 -0.29270858 -1.0110002 4335156
-0.012517219 -0.28789428 -1.011 4335912
-0.01251722 -0.28211716 -1.011 4206128
-0.012541983 -0.27688476 -1.013 4862773
-0.012554362 -0.27329713 -1.0140002 5059134
-0.0077029322 -0.31100285 -1.011 5123382
-0.0077029322 -0.30715144 -1.0110002 4666679
-0.0077029327 -0.30233717 -1.011 4665369
-0.0075103613 -0.29790804 -1.011 4599061
-0.0077029332 -0.29270858 -1.011 4532527
-0.0077029332 -0.28789431 -1.0110002 4334124
-0.0077029336 -0.28211716 -1.0110002 3874089
-0.0077138869 -0.27674812 -1.0125 4138024
-0.0077257911 -0.27233145 -1.0140001 4465710
-0.0067600771 -0.26750287 -1.0140001 4467242
-0.0067600771 -0.2626743 -1.0140001 4730941
-0.008691526 0.19121143 -1.0140001 9785159
-0.0031293607 -0.30739212 -1.011 4994864
-0.003167015 -0.28783065 -1.0127144 4597813
-0.0032191251 -0.2678248 -1.0140001 4073228
-0.0048143677 -0.15116857 -1.011 5908761
-0.004184844 -0.1477543 -1.0140002 6828080
-0.0048286533 -0.14389144 -1.0140001 7484979
-0.0048143826 0.1935343 -1.011 9917766
-0.021792935 -0.27798003 -1.0170001 6044726
-0.021308651 -0.27410576 -1.0170001 6045480
-0.018402936 -0.27701145 -1.0170001 5649461
-0.017434366 -0.27313715 -1.0170001 5585973
-0.012591505 -0.27120003 -1.0170002 5191491
-0.01210722 -0.26684144 -1.0170001 5193038
-0.011622935 -0.26345146 -1.0170001 5323601
-0.0087172203 -0.27023143 -1.0170001 4664638
-0.0080715064 -0.26764858 -1.0170001 4600124
-0.0082329353 -0.26199859 -1.0170001 5058636
-0.0077486499 -0.25764003 -1.0170001 5321549
-0.007425793 -0.25408858 -1.0170001 5520711
-0.0067800977 0.19468288 -1.0170001 9785925
-0.0067800977 0.19662002 -1.0170001 9590093
-0.0036806492 -0.26170802 -1.0170001 4531756
-0.0048429552 0.19855715 -1.0170001 9984351
-0.022394363 -0.27361259 -1.0224001 6112580
-0.020460078 -0.26792857 -1.023 6376564
-0.017845795 -0.27220953 -1.0220001 5718081
-0.017512936 -0.26753575 -1.0215001 5983050
-0.016546749 -0.26182479 -1.0220001 6439734
-0.016562937 -0.25721145 -1.023 6965325
-0.013923888 -0.26779053 -1.0200002 5456456
-0.013422935 -0.26162061 -1.0212001 5914965
-0.012396506 -0.25737432 -1.02075 6244191
-0.01135627 -0.25339049 -1.0220001 6180692
-0.011691527 0.18803714 -1.023 9523006
-0.010701527 0.19262715 -1.0215001 9719363
-0.0079840785 -0.25180116 -1.0224 5718860
-0.0068200789 -0.24844284 -1.023 5785674
-0.0082636699 0.19783215 -1.02075 9720652
-0.0077943844 0.20167714 -1.023 9984317
-0.0048572212 -0.25160003 -1.0200001 4990286
-0.0048715114 -0.1490657 -1.023 6959157
-0.0038950983 0.20250359 -1.0222499 10180646
-0.022474363 -0.27164572 -1.026 6376530
-0.022474363 -0.26773715 -1.026 6640983
-0.021497222 -0.26285145 -1.026 6572862
-0.02052008 -0.25796574 -1.026 6702400
-0.018565793 -0.26285145 -1.026 6637115
-0.018077221 -0.25650001 -1.026 6900291
-0.016611507 -0.25308001 -1.026 6705723
-0.014657221 -0.2550343 -1.026 6770255
-0.012702935 -0.25210285 -1.026 6640466
-0.01074865 -0.24917144 -1.026 6573646
-0.012702955 0.18858857 -1.026 9391928
-0.012702955 0.19152001 -1.026 9457468
-0.01074867 0.19738285 -1.026 9653575
-0.01074867 0.20031428 -1.026 9719885
-0.0078172209 -0.24721715 -1.026 6243164
-0.0078172414 0.20422286 -1.026 10312745
-0.0039086509 -0.24526286 -1.026 5518423
-0.0039086705 0.20715429 -1.026 10378034
-0.022366032 -0.2529 -1.03225 5715766
-0.021643888 -0.24791999 -1.033 5386813
-0.021643888 -0.24300095 -1.033 5651263
-0.017863128 -0.25185809 -1.0306001 6507062
-0.01770865 -0.24792001 -1.033 6241851
-0.017708652 -0.24300095 -1.033 6044727
-0.018692458 -0.23906571 -1.033 5714996
-0.017364543 0.18903747 -1.0320001 8736811
-0.01770867 0.19282666 -1.033 8802081
-0.014060398 -0.25079685 -1.0300001 6837061
-0.012772936 -0.24755953 -1.0315001 6769743
-0.012786113 -0.2429219 -1.0326667 6768200
-0.010821985 -0.23906571 -1.033 6440778
-0.014714386 0.18834287 -1.0300001 9195318
-0.014735814 0.1925481 -1.0315001 9261106
-0.013253672 0.19780689 -1.0307502 9523783
-0.012766765 0.20194446 -1.0310001 9720911
-0.01159648 0.20695029 -1.0318002 10049089
-0.0088286512 -0.24621907 -1.0300001 6767991
-0.0078477003 -0.24229527 -1.0300002 6837076
-0.0075426204 -0.23840985 -1.033 6900053
-0.00688675 -0.15740952 -1.033 5315859
-0.0068867505 -0.15445809 -1.033 6104853
-0.0078477189 0.20796192 -1.0300001 10574135
-0.0075359736 0.21197018 -1.0320001 10377784
-0.0044179377 -0.23658025 -1.03075 6573390
-0.0049191318 -0.14265238 -1.033 7355164
-0.0049048616 0.20894288 -1.0300001 10443582
-0.0029453377 0.21264303 -1.0305002 10443853
-0.0039353375 0.2154543 -1.033 10509396
-0.022693414 -0.2377867 -1.0360001 5190192
-0.022738496 -0.23231366 -1.0379999 4532517
-0.02270532 -0.22704238 -1.0365002 4008213
-0.022693416 -0.22199999 -1.0360001 4137779
-0.02270532 -0.21717095 -1.0365001 4205095
-0.022752464 -0.21267875 -1.0386666 4861752
-0.021439765 -0.20812985 -1.039 5189443
-0.017562745 -0.23739202 -1.0360001 5583666
-0.017772224 -0.23302263 -1.0367501 4991792
-0.017776273 -0.22813907 -1.0370001 4533025
-0.017776273 -0.22221522 -1.0370001 4137261
-0.017797939 -0.21753737 -1.03825 3221017
-0.017811511 -0.21274763 -1.039 3875362
-0.01748167 -0.20812985 -1.039 4334399
-0.016821986 -0.20483144 -1.039 4665663
-0.016773432 0.19733334 -1.036 9132082
-0.013073413 -0.23754002 -1.0360001 5978173
-0.012826746 -0.23285334 -1.0360001 5517619
-0.012851509 -0.22835809 -1.0380001 5059112
-0.012863891 -0.22264285 -1.039 4730668
-0.012863892 -0.21769524 -1.039 4205856
-0.012863891 -0.21274763 -1.039 3875602
-0.012863892 -0.2078 -1.039 3415855
-0.012863893 -0.2028524 -1.039 3874872
-0.012369131 -0.19839951 -1.039 3351353
-0.010884847 -0.15139715 -1.039 6496273
-0.014800099 0.19733334 -1.036 9392955
-0.012826767 0.20423999 -1.036 9785932
-0.01218137 0.21168034 -1.0370001 10180672
-0.0082223024 -0.23647112 -1.036 6635861
-0.0078934133 -0.23285332 -1.036 6243651
-0.0079086516 -0.22835809 -1.0380001 5714490
-0.0079162735 -0.22264287 -1.039 4991281
-0.0079162726 -0.21769524 -1.039 4402463
-0.0079162735 -0.21274763 -1.039 4402723
-0.0079162726 -0.2078 -1.039 4533817
-0.0079162735 -0.2028524 -1.039 4530737
-0.0079162735 -0.19790477 -1.039 3874091
-0.0089057991 -0.15535524 -1.039 5771793
-0.007899846 -0.15205738 -1.0367501 6629142
-0.0077103698 -0.14766343 -1.0378001 7418405
-0.0069267517 -0.14348096 -1.039 7747117
-0.0088801002 0.21410666 -1.036 10312487
-0.0075797825 0.21715681 -1.0380001 10444358
-0.0042756358 -0.23252444 -1.036 6508370
-0.0032124617 -0.22800191 -1.0375 6243135
-0.0029677004 -0.22242859 -1.0379999 5716009
-0.0029677004 -0.21748573 -1.0380001 4663564
-0.0029680184 -0.21261047 -1.0383335 4008481
-0.0029686536 -0.2078 -1.039 4273205
-0.0029686533 -0.2028524 -1.039 4995103
-0.0029686538 -0.19790477 -1.039 4992275
-0.0029601003 0.21805334 -1.036 10443863
-0.020840084 -0.20244572 -1.0420001 6245182
-0.020840084 -0.19946858 -1.0420001 6770504
-0.01885532 -0.20641525 -1.0420001 5126466
-0.017862938 -0.20244572 -1.0420001 5589054
-0.017532146 -0.198807 -1.0420001 6180707
-0.017862957 0.21336192 -1.0420001 10048563
-0.017862957 0.21534668 -1.0420001 9917242
-0.013297988 -0.19629298 -1.0420001 5126212
-0.011908655 -0.1935143 -1.0420001 5127498
-0.011908657 -0.15282667 -1.0420001 5971213
-0.010916276 -0.14885715 -1.0420001 7154462
-0.014885816 0.21336192 -1.0420001 10114623
-0.013397244 0.21584287 -1.0420001 10115144
-0.007939131 -0.19549906 -1.0420001 3939376
-0.007939131 -0.19252193 -1.0420001 3740472
-0.0089315139 -0.15878096 -1.0420001 4790292
-0.0089315139 -0.14588001 -1.0420001 7613999
-0.0089315297 0.2193162 -1.0420001 10379085
-0.0039696069 -0.19549906 -1.0420001 3939605
-0.0029772436 0.22262415 -1.0420001 10576210
-0.022936275 -0.19743431 -1.0470002 7034454
-0.022368792 -0.19275922 -1.047143 6045490
-0.021958182 -0.18864001 -1.0480001 4988429
-0.018246114 -0.19672541 -1.0450001 7098981
-0.017948655 -0.19244669 -1.0470002 6442835
-0.013238451 -0.19174615 -1.0462859 6180435
-0.012476274 -0.18814096 -1.0480001 7491923
-0.011634054 -0.15721685 -1.0470002 4984072
-0.013615959 -0.15241715 -1.0460001 5774351
-0.01295818 -0.14700763 -1.0465001 7088946
-0.011961514 -0.14451668 -1.0465001 7548476
-0.011977244 0.21858288 -1.0480001 10182473
-0.0079619884 -0.19009049 -1.0450001 4397375
-0.007984845 -0.18764192 -1.0480001 5324610
-0.007984845 -0.18464763 -1.0480001 6179390
-0.0076302448 -0.14231907 -1.0450001 8073271
-0.0069667683 0.2219381 -1.0450001 10509905
-0.0034834165 -0.19058812 -1.0450001 2229764
-0.0029924647 -0.18746191 -1.0470002 1311750
-0.0029943697 -0.17865905 -1.0480001 1772049
-0.0049762917 0.22392859 -1.0450001 10642005
-0.0029905781 0.22679876 -1.0460001 10904877
-0.022041989 -0.18635431 -1.052 3743766
-0.022041989 -0.18234667 -1.052 4599610
-0.021040084 -0.17934096 -1.052 5322063
-0.01728294 -0.18710572 -1.052 5649977
-0.017032465 -0.18234669 -1.052 4595769
-0.016746206 -0.17790967 -1.052 5058625
-0.015028657 -0.15529525 -1.052 4786950
-0.015028657 -0.15128762 -1.052 5972506
-0.015028657 -0.14928381 -1.052 6431527
-0.018034387 0.21941715 -1.052 9851705
-0.018034387 0.22142096 -1.052 9786425
-0.017032482 0.22943619 -1.052 9852445
-0.012356909 -0.18602034 -1.052 6836295
-0.012022941 -0.18234667 -1.052 5121579
-0.012022941 -0.17733715 -1.052 4399132
-0.012022942 -0.17332952 -1.052 4273422
-0.011021054 0.22142096 -1.052 10313545
-0.0070134182 -0.18234667 -1.052 4994856
-0.0070134178 -0.17733715 -1.052 2622731
-0.0065124664 -0.17282857 -1.052 1574148
-0.0063454816 -0.16665018 -1.052 3476998
-0.0070134187 -0.16331048 -1.052 4461585
-0.0090172291 -0.14327239 -1.052 7940942
-0.0070134355 0.22542858 -1.052 10640976
-0.0030057987 -0.17332952 -1.052 2557444
-0.0030058164 0.22943619 -1.052 10968353
-0.022305802 -0.17744096 -1.0550002 6244955
-0.022146756 -0.17213809 -1.0570002 7099219
-0.0180858 -0.17583334 -1.0550001 5652046
-0.017108656 -0.17208381 -1.0566669 5654330
-0.016121991 -0.16726476 -1.0580001 3943480
-0.015114371 -0.16121906 -1.0580001 2884355
-0.016457865 -0.15752447 -1.0580001 4000003
-0.017129611 -0.1531581 -1.0580001 5577495
-0.017513232 -0.14754783 -1.0568001 6827048
-0.015741374 0.2233921 -1.0550001 9918779
-0.016097723 0.22739907 -1.0565001 10050098
-0.012074371 -0.17105097 -1.0565001 3547398
-0.012091514 -0.16726476 -1.0580001 1837315
-0.012083657 -0.16311929 -1.05725 3016200
-0.013061991 -0.15975715 -1.0550001 3998977
-0.012057229 -0.14368096 -1.0550001 7745346
-0.013062007 0.2220524 -1.0550001 10182214
-0.011083912 0.2267143 -1.0580001 10444863
-0.0083816731 -0.17130542 -1.0560001 2297857
-0.0075358003 -0.16829763 -1.0550001 2689029
-0.0090429429 -0.1637762 -1.0550001 3411733
-0.0050381823 -0.14106667 -1.0580001 7549735
-0.0090429606 0.22406192 -1.0550001 10444620
-0.0083816908 0.22762732 -1.0560001 10640450
-0.0050239125 0.23009048 -1.0550001 10836792
-0.0030229439 -0.14106667 -1.0580001 7024669
-0.022040468 -0.16722591 -1.0616001 6573385
-0.02227699 -0.16303025 -1.0632501 3218462
-0.021280088 -0.15706667 -1.064 4131329
-0.022278421 -0.15189357 -1.0632501 5774855
-0.022278421 -0.14784166 -1.0632501 6695705
-0.021955643 -0.14423111 -1.064 7418676
-0.01921723 -0.16688383 -1.0620002 5782593
-0.017524054 -0.1627624 -1.0615001 2230026
-0.019199135 -0.15763429 -1.0610001 3736833
-0.019199135 -0.15258193 -1.0610001 5708817
-0.017178185 -0.14651906 -1.0610001 7218473
-0.017722705 -0.14429787 -1.0632501 7810862
-0.015200104 0.23205334 -1.064 10180393
-0.012327913 0.22735718 -1.0610001 10313529
-0.012160104 0.23205334 -1.064 10445106
-0.011146771 0.23610666 -1.064 10444887
-0.0070884372 0.23290311 -1.0632501 10639924
-0.0060801031 0.23610666 -1.064 10640196
-0.0030400869 -0.13882667 -1.064 6433058
-0.0030315318 0.23342001 -1.0610001 10968880
-0.0030358175 0.23678716 -1.0625 10838080
-0.015257247 0.23496002 -1.0680001 10115132
-0.015257247 0.23699431 -1.0680001 10109775
-0.012205818 0.23496002 -1.0680001 10444614
-0.013222961 0.23699431 -1.0680001 10247773
-0.0091543896 0.23496002 -1.0680001 10574909
-0.0091543896 0.23699431 -1.0680001 10508882
-0.016365802 -0.14422286 -1.074 8009269
-0.011910565 -0.1432724 -1.072 7611455
-0.0081715165 -0.14197716 -1.0725 7414579
-0.0059269452 -0.13752115 -1.0728 6431520
-0.0061372314 -0.13297144 -1.074 6301718
-0.0065755993 -0.12785715 -1.074 6564126
-0.0061372314 -0.12274286 -1.074 7087395
-0.0061372323 -0.11762857 -1.074 6563629
-0.0061372318 -0.11251429 -1.074 6629683
-0.0059326612 -0.10780914 -1.074 7021103
-0.0051143751 -0.10330857 -1.074 6891796
-0.005100105 0.23970002 -1.0710001 10706496
-0.0061372477 0.24139428 -1.074 10640452
-0.0030643905 0.24310145 -1.0725 10837570
-0.01540009 -0.13654667 -1.0780001 5248523
-0.01540009 -0.13244 -1.0780001 6234638
-0.01540009 -0.12833335 -1.0780001 6367004
-0.012662311 -0.14133778 -1.0780001 5969715
-0.012320089 -0.13757333 -1.0780001 5772566
-0.012320091 -0.13244002 -1.0780001 6299918
-0.012320089 -0.12730667 -1.0780001 6369307
-0.011293423 -0.12217334 -1.0780001 6497839
-0.011293422 -0.11806668 -1.0780001 6367815
-0.011293423 -0.11293334 -1.0780001 6695702
-0.011293423 -0.10266668 -1.0780001 6892330
-0.011293423 -0.097533338 -1.0780001 6762545
-0.0092400881 -0.14065334 -1.0780001 6166565
-0.009240089 -0.13757333 -1.0780001 6168082
-0.009240089 -0.13244002 -1.0780001 6300947
-0.009240089 -0.12628001 -1.0780001 6696480
-0.009240089 -0.12217334 -1.0780001 6761260
-0.0092400899 -0.11704001 -1.0780001 6433078
-0.0092400899 -0.11293334 -1.0780001 6694950
-0.008726757 -0.10728668 -1.0780001 7086115
-0.0075974227 -0.10246134 -1.0780001 6957351
-0.0071867569 -0.097533338 -1.0780001 6892595
-0.0082134241 -0.092399999 -1.0780001 6761774
-0.0071867579 -0.087266676 -1.0780001 7222310
-0.0071867718 0.24332002 -1.0780001 10509898
-0.0030800914 -0.068786673 -1.0780001 5245702
-0.016472472 -0.1420743 -1.0810001 6103858
-0.017501995 -0.1379562 -1.0810001 5311749
-0.018090297 -0.13280858 -1.0810002 6102291
-0.017501995 -0.12766096 -1.0810001 6300964
-0.015442948 -0.12457239 -1.0810001 6564904
-0.015442949 -0.11324763 -1.0810001 6827021
-0.0133839 -0.12251335 -1.0810001 6564658
-0.01269755 -0.11702254 -1.0810001 6629175
-0.012869137 -0.11170334 -1.0810001 6695701
-0.012011202 -0.10741367 -1.0810001 6761254
-0.0133839 -0.10295239 -1.0810001 6958888
-0.012354376 -0.097290002 -1.0810001 6893105
-0.012011203 -0.092313975 -1.0810001 7023674
-0.011324853 -0.089568578 -1.0810001 7418173
-0.00514771 -0.092657149 -1.0810001 6762546
-0.007206758 -0.087509528 -1.0810001 7221803
-0.0065204087 -0.082705095 -1.0810001 7158051
-0.0059713302 -0.077626102 -1.0810002 7092539
-0.0051477114 -0.068978101 -1.0810001 6569988
-0.0051477249 0.2460562 -1.0810001 10706495
-0.0030886622 -0.091627628 -1.0810001 6765086
-0.0030886622 -0.089568578 -1.0810001 7028518
-0.0030886626 -0.078243807 -1.0810001 6037046
-0.0030886629 -0.072066665 -1.0810001 5379597
-0.0030886771 0.24811526 -1.0810001 10837062
-0.021760091 -0.14299428 -1.0880001 6231053
-0.022565043 -0.13724801 -1.0868 4919566
-0.022766281 -0.13244952 -1.0865 5773866
-0.022766281 -0.12727574 -1.0865002 6299175
-0.022796281 -0.12227048 -1.0880001 6824746
-0.022796281 -0.11708953 -1.0880002 6694936
-0.022796281 -0.11190858 -1.0880001 6761992
-0.022450885 -0.10810921 -1.0880001 6892302
-0.021760093 -0.10361905 -1.0880001 6760987
-0.019633424 -0.1426 -1.085 6364446
-0.019633424 -0.13950001 -1.085 5507586
-0.018944535 -0.12572223 -1.085 6561830
-0.017575804 -0.12198906 -1.0855001 6693932
-0.017575806 -0.11785381 -1.0855001 6956585
-0.018157234 -0.1123381 -1.085 6565396
-0.017566757 -0.10746667 -1.085 6434081
-0.017572792 -0.10233079 -1.0853335 6958376
-0.01759295 -0.097267151 -1.0865 7089187
-0.016571997 -0.092178576 -1.0875001 6762289
-0.01554295 -0.087040007 -1.0880001 7090222
-0.01554295 -0.083931431 -1.0880001 7221554
-0.01554295 -0.079786666 -1.0880001 7549225
-0.013433424 -0.10643334 -1.085 6696236
-0.013433424 -0.10023333 -1.085 7089964
-0.013433425 -0.094033331 -1.085 6958393
-0.012614187 -0.087467432 -1.0856001 7418164
-0.012426521 -0.082837388 -1.08725 7483957
-0.012208282 -0.078000195 -1.0862001 7746328
-0.011398188 -0.072533339 -1.0880001 7353905
-0.011398188 -0.068388574 -1.0880001 7682875
-0.0079223141 -0.082322225 -1.085 7484968
-0.0087898532 -0.077035479 -1.0857501 7811626
-0.0072453297 -0.072432861 -1.0865002 7355171
-0.0075039016 -0.067000479 -1.0865 7486506
-0.0062136641 -0.062127858 -1.08725 6895904
-0.0051810448 -0.059062857 -1.0880001 5976331
-0.00932582 0.24350476 -1.0880001 10442835
-0.0051667723 0.24903335 -1.085 10641214
-0.0051810588 0.25179428 -1.0880001 10641462
-0.022512792 -0.098016828 -1.0910001 6892318
-0.021820093 -0.080006666 -1.0910001 7352636
-0.021820093 -0.077928573 -1.0910001 7352106
-0.019741997 -0.09247525 -1.0910001 6958366
-0.01870295 -0.087280005 -1.0910001 7155230
-0.018257644 -0.082084768 -1.0910001 7351863
-0.017663902 -0.07688953 -1.0910001 7483172
-0.017248282 -0.072941147 -1.0910001 7614505
-0.015585808 -0.068577155 -1.0910001 7877670
-0.013507711 -0.075850479 -1.0910001 7681304
-0.013507712 -0.072733343 -1.0910001 7550766
-0.012988188 -0.067018576 -1.0910001 7813165
-0.011429617 -0.06234286 -1.0910001 8009791
-0.011429617 -0.059225716 -1.0910001 8469309
-0.0093515208 -0.06234286 -1.0910001 7813966
-0.0076890462 -0.057978857 -1.0910001 7222826
-0.008312487 0.24729335 -1.0910001 10443341
-0.0065807421 0.25248858 -1.0910001 10442807
-0.0031172496 0.25456667 -1.0910001 10642751
-0.022942951 -0.092814289 -1.0950001 6891798
-0.022942949 -0.0876 -1.095 7022865
-0.022657238 -0.067274295 -1.098 7418414
-0.019814378 -0.071957141 -1.095 7810856
-0.018340092 -0.067540005 -1.0958571 7812125
-0.017243667 -0.063222148 -1.09725 7878187
-0.016382953 -0.058908574 -1.098 8009790
-0.013557237 -0.062571429 -1.095 7943728
-0.012751522 -0.057064574 -1.0974001 8207919
-0.011502952 -0.052285716 -1.098 8472352
-0.012200108 0.24713716 -1.098 10246729
-0.011502965 0.25201714 -1.098 10245440
-0.0073000938 -0.055271428 -1.095 6629920
-0.0083658081 -0.052285716 -1.098 6697499
-0.0073200944 -0.047057144 -1.098 5508371
-0.0073200944 -0.044965714 -1.098 5243925
-0.0093858214 0.24924287 -1.095 10377803
-0.0093858214 0.25237143 -1.095 10310719
-0.0066115358 0.25712574 -1.0960001 10310949
-0.0052286787 0.26038286 -1.098 10311941
-0.022564858 -0.058248568 -1.102 7682362
-0.018891523 -0.061921902 -1.102 7812410
-0.018541681 -0.057024129 -1.1020001 7682616
-0.017842 -0.052476194 -1.1020001 8076314
-0.016582569 -0.047648381 -1.1020001 8404779
-0.013643904 -0.05247619 -1.102 8340262
-0.01259438 -0.047228571 -1.1020001 8537381
-0.012944221 -0.042330794 -1.102 8535344
-0.013643917 0.24663809 -1.102 10247502
-0.012944235 0.25153589 -1.102 10114625
-0.011544868 0.2550343 -1.102 10245436
-0.0089210467 -0.04775333 -1.102 6699270
-0.0094458088 -0.043030474 -1.102 6830347
-0.0094458219 0.25818285 -1.102 10179636
-0.0073467745 0.26133144 -1.102 10180628
-0.022884224 -0.042599685 -1.1090001 8405309
-0.020067714 -0.039079051 -1.1090001 8864321
-0.019469144 -0.046830952 -1.105 8273459
-0.017890573 -0.04209524 -1.105 8470584
-0.016528035 -0.03832794 -1.1076667 8601931
-0.015842954 -0.034854289 -1.1090001 8668224
-0.015814394 0.24880955 -1.1070001 10047046
-0.015785823 0.25257143 -1.105 9851716
-0.011576286 -0.041042857 -1.105 8404522
-0.01297946 -0.03823651 -1.105 8272718
-0.012146287 -0.033270001 -1.1090001 7617580
-0.012628679 0.25678095 -1.105 10048826
-0.011618204 0.26087907 -1.1090001 10048819
-0.0094715236 -0.041042857 -1.105 6632725
-0.0095058102 -0.039079051 -1.1090001 6500637
-0.0095058102 -0.034854289 -1.1090001 6299939
-0.0073839189 0.26356953 -1.1070001 10114848
-0.0066829659 0.26619083 -1.1076667 10180145
-0.021553431 -0.037806667 -1.1130002 8602178
-0.020140097 -0.033920001 -1.113 8734003
-0.018020095 -0.037100002 -1.113 8667721
-0.018020095 -0.033920001 -1.113 8602931
-0.018020108 0.24698001 -1.113 9785154
-0.018020108 0.25334001 -1.113 9720392
-0.016960107 0.25652 -1.113 9720900
-0.011660095 -0.037100002 -1.113 8010565
-0.013780097 -0.031800002 -1.113 7752226
-0.01307343 -0.027913336 -1.1130002 7025936
-0.013780097 -0.022260001 -1.1130002 6565392
-0.013780109 0.2597 -1.113 9983288
-0.0084800953 -0.037100002 -1.113 5576997
-0.022320095 -0.03224 -1.1160001 8602671
-0.016651524 -0.031531431 -1.1160001 8340263
-0.017005811 -0.027634289 -1.1160001 7682596
-0.017005811 -0.02232 -1.1160002 6958370
-0.016651526 -0.016651429 -1.1160001 6498844
-0.015942955 -0.012754287 -1.1160001 6170387
-0.015942955 -0.0095657157 -1.1160001 6103051
-0.018068679 0.24977143 -1.1160001 9850180
-0.018068679 0.25189716 -1.1160001 9785927
-0.012754383 -0.017005716 -1.1160001 6172699
-0.012400098 -0.012400001 -1.1160001 5907472
-0.022400096 -0.027733335 -1.12 8075831
-0.022414701 -0.022412699 -1.1206666 7154479
-0.022422006 -0.017081907 -1.1210001 6562078
-0.021998575 -0.012600381 -1.1212 6232594
-0.021841187 -0.0071790498 -1.1225716 6101771
-0.022442004 -0.0021371439 -1.1220001 6236182
-0.022442004 0.002137142 -1.122 6434591
-0.022454068 0.0074850782 -1.1226667 6696738
-0.022460097 0.012834285 -1.1230001 6629675
-0.022460097 0.01711238 -1.1230001 6694433
-0.022460101 0.022459997 -1.123 6825769
-0.022451052 0.02779476 -1.1225002 6695489
-0.022032291 0.031871807 -1.123 6694435
-0.020855814 0.036898572 -1.123 6629396
-0.020321053 0.042780951 -1.123 6498080
-0.022460101 0.048128571 -1.123 6891785
-0.022460099 0.054010954 -1.123 6696720
-0.022460099 0.057754289 -1.1230001 7089941
-0.022460099 0.062032387 -1.1230001 6892064
-0.02245407 0.082328893 -1.1226667 7619110
-0.022460101 0.087700956 -1.1230001 7553334
-0.022460101 0.091979049 -1.1230001 7683615
-0.022460101 0.096471041 -1.123 7749426
-0.020321054 0.10374381 -1.123 7619877
-0.020321058 0.1711238 -1.123 7026203
-0.020828679 0.19759619 -1.1215 8406591
-0.022085505 0.20267206 -1.1220001 8079137
-0.018133434 -0.018133335 -1.12 6694177
-0.018133434 -0.012800001 -1.12 6300949
-0.0172801 -0.007040001 -1.12 6234377
-0.017066766 -0.0021333341 -1.12 6235685
-0.017066766 0.0021333327 -1.12 6170941
-0.018149624 0.0074752374 -1.1210001 6433344
-0.018182002 0.012834285 -1.123 6301996
-0.018182002 0.017112382 -1.123 6236449
-0.017112482 0.022459999 -1.1230001 6236187
-0.018157721 0.027769048 -1.1215 6365737
-0.018133435 0.031999998 -1.12 6365464
-0.018182004 0.037433334 -1.123 6299932
-0.018182004 0.041711427 -1.123 6168621
-0.018182004 0.058823813 -1.123 6958356
-0.018182004 0.06096286 -1.123 6892802
-0.018182006 0.084492385 -1.123 6897694
-0.017101768 0.087641671 -1.12225 6698280
-0.017112484 0.091979049 -1.123 6829350
-0.017112484 0.095187619 -1.123 6830894
-0.016042961 0.10374381 -1.123 7093026
-0.01675598 0.10659587 -1.123 7355174
-0.018182008 0.11336952 -1.123 7353365
-0.016042965 0.16363715 -1.123 9064236
-0.017112488 0.16791524 -1.123 8339487
-0.018182009 0.17219333 -1.123 8011049
-0.016042965 0.18502763 -1.123 9064485
-0.016042966 0.1935838 -1.123 8932148
-0.018149633 0.19750762 -1.1210001 8866392
-0.016725507 0.201067 -1.1210001 8997698
-0.018182013 0.24705999 -1.123 9785903
-0.018182013 0.25989428 -1.123 9721152
-0.016042968 0.26203334 -1.123 9785911
-0.013866764 -0.013866668 -1.12 6103317
-0.013333431 -0.0080000004 -1.12 5906443
-0.013866768 0.088533334 -1.12 6234145
-0.013903911 0.091979049 -1.123 6235937
-0.013903912 0.097326666 -1.123 6368557
-0.0053477297 0.27272859 -1.123 10245943
-0.022540102 0.047012001 -1.1270001 6760973
-0.022540102 0.051305335 -1.1270001 6957834
-0.022540104 0.098746672 -1.1270001 7684653
-0.022540107 0.10733335 -1.1270001 7747122
-0.021824552 0.11198445 -1.1270001 7615529
-0.020393439 0.11699334 -1.1270001 7352602
-0.020393439 0.12236001 -1.1270001 7287592
-0.02039344 0.16314667 -1.1270001 6697006
-0.02039344 0.16744001 -1.1270001 6826523
-0.022897886 0.17352223 -1.1270001 5903623
-0.022540109 0.17817335 -1.1270001 6561037
-0.022540107 0.18246667 -1.1270001 6694938
-0.022540107 0.18783335 -1.1270001 7023902
-0.022110777 0.19298536 -1.1270001 7615536
-0.022540111 0.23935334 -1.1270001 9195577
-0.020393444 0.24257335 -1.1270001 9591085
-0.020393444 0.24686669 -1.1270001 9524249
-0.020393444 0.25223336 -1.1270001 9523521
-0.020393444 0.25760001 -1.1270001 9588552
-0.01824677 0.044006672 -1.1270001 6366247
-0.01824677 0.056886673 -1.1270001 6827303
-0.017173437 0.098746672 -1.1270001 6896165
-0.017531216 0.10268223 -1.1270001 7159840
-0.018246774 0.10840668 -1.1270001 7485494
-0.018246774 0.11055334 -1.1270001 7550501
-0.018246774 0.11699334 -1.1270001 7287319
-0.018246774 0.12236001 -1.1270001 7222314
-0.018246774 0.12665334 -1.1270001 7485469
-0.017173439 0.13416667 -1.1270001 8011055
-0.016100105 0.13846001 -1.1270001 8406325
-0.017531218 0.14203779 -1.1270001 7943221
-0.01753122 0.1627889 -1.1270001 8339506
-0.017173441 0.16636668 -1.1270001 8341286
-0.01753122 0.17853114 -1.1270001 8209422
-0.018246775 0.18568669 -1.1270001 8142370
-0.017531222 0.19284225 -1.1270001 8603958
-0.013953437 0.097673342 -1.1270001 6303277
-0.013953438 0.13846001 -1.1270001 8537143
-0.013953439 0.15134001 -1.1270001 9128517
-0.01395344 0.15992668 -1.1270001 9326128
-0.022620104 0.12710285 -1.131 7353368
-0.022620106 0.13248856 -1.1310002 7352093
-0.022631057 0.13793477 -1.1315 7221546
-0.022642009 0.14230858 -1.1320001 7090458
-0.022321738 0.14700899 -1.1314287 6957858
-0.022943322 0.15249965 -1.133625 6562835
-0.022662012 0.15754096 -1.1330001 6560547
-0.022638202 0.18866667 -1.1320001 6958878
-0.022680111 0.25704002 -1.1340001 9457994
-0.01831153 0.047394287 -1.131 6564367
-0.01832772 0.052824765 -1.1320001 6760721
-0.018311534 0.11956286 -1.131 7286562
-0.018311534 0.13141143 -1.131 7747608
-0.01759344 0.13751525 -1.131 7943474
-0.017234391 0.14326 -1.131 7943222
-0.017018963 0.14799945 -1.131 8076862
-0.017234392 0.15295428 -1.131 8403512
-0.017234392 0.15726286 -1.131 8601392
-0.017234392 0.1604943 -1.131 8602423
-0.017255822 0.18335715 -1.1325001 8472094
-0.017280107 0.18900001 -1.1340001 8603688
-0.017234392 0.19065429 -1.131 8669485
-0.016157253 0.2660543 -1.131 9851447
-0.014002963 0.14218286 -1.131 8602688
-0.013464392 0.14703001 -1.131 8997450
-0.014002963 0.15403143 -1.131 9259318
-0.014002963 0.15726286 -1.131 9325609
-0.014002965 0.19065429 -1.131 9260589
-0.013307731 0.26796481 -1.1330001 9851956
-0.012600112 0.27180001 -1.1340001 9721400
-0.011880112 0.27540001 -1.1340001 9721396
-0.0096943974 0.27144 -1.131 9983027
-0.0075567784 0.27779764 -1.1335 9983790
-0.0064801117 0.28188002 -1.1340001 9853748
-0.0032315396 0.27790287 -1.131 10049845
-0.017341062 0.26770097 -1.138 9654839
-0.016257253 0.27203619 -1.138 9524285
-0.014089636 0.27420381 -1.138 9590334
-0.013005826 0.27745524 -1.138 9525301
-0.011922016 0.28070667 -1.138 9655864
-0.0075867786 0.27637142 -1.138 10376497
-0.0097543979 0.28179049 -1.138 9721912
-0.0061416999 0.28576446 -1.138 9919272
-0.018489636 0.26864192 -1.1420001 9786167
-0.018489636 0.27081716 -1.1420001 9785401
-0.016314398 0.27625525 -1.1420001 9328705
-0.01413916 0.2795181 -1.1420001 9656380
-0.013051542 0.28278095 -1.1420001 9721154
-0.0087010646 0.28713143 -1.1420001 9853498
-0.0065258271 0.29039431 -1.1420001 10181178
-0.022920111 0.26303428 -1.146 9589062
-0.020737255 0.26630858 -1.146 9655086
-0.018554397 0.27394855 -1.146 9784896
-0.018554399 0.27722287 -1.146 9459525
-0.016371543 0.28158855 -1.146 9854272
-0.014188685 0.28486288 -1.146 9787462
-0.0098229712 0.28922856 -1.146 9918279
-0.005457256 0.2935943 -1.146 9985091
-0.021709828 0.27255961 -1.1512001 9785647
-0.021948447 0.27763593 -1.1522501 9655615
-0.02083678 0.28294146 -1.1515 9589827
-0.018619163 0.28257143 -1.1500001 9722178
-0.017173132 0.28683782 -1.151 9919560
-0.013161543 0.28842336 -1.1515 9656136
-0.012800749 0.29147494 -1.152 9918285
-0.0091270991 0.29388893 -1.1500001 9984350
-0.007134161 0.2979393 -1.1522501 9853512
-0.020936305 0.28759715 -1.1570001 9786952
-0.016528687 0.29200476 -1.1570001 10051666
-0.014324876 0.29420859 -1.1570001 10115146
-0.012121068 0.29641241 -1.1570001 10049112
-0.0069788452 0.30228922 -1.1570001 10377534
-0.0033058287 0.30302382 -1.1570001 10247238
-0.021008685 0.29080287 -1.161 9983561
-0.018797256 0.29190856 -1.161 9985362
-0.016585829 0.29633141 -1.161 10180933
-0.013268686 0.29854286 -1.161 10049355
-0.0099515431 0.3029657 -1.161 10311489
-0.0077401148 0.3073886 -1.1610001 9457964
-0.0033172579 0.30628288 -1.161 10249033
-0.022190593 0.29291433 -1.1650001 10048582
-0.0224605 0.29729697 -1.1674 10244165
-0.021153448 0.30282667 -1.169 8993809
-0.018862022 0.29735237 -1.1650001 10312258
-0.017784879 0.30230859 -1.1670001 9720094
-0.017784879 0.30564287 -1.1670001 7807518
-0.013684244 0.30216032 -1.1650002 10114634
-0.013314402 0.30622858 -1.1650001 9057588
-0.003328687 0.30955717 -1.1650001 10247225
-0.0033401158 0.31284669 -1.169 8729128
-0.02280331 0.44735688 -1.3060001 590081
-0.021144897 0.48384196 -1.3060001 327937
-0.022388708 0.48757339 -1.3060001 655617
-0.02238871 0.49130481 -1.3060001 327937
-0.0070483875 0.43326038 -1.3060001 3277313
-0.0074629909 0.43782097 -1.3060001 2294017
-0.0074629909 0.4415524 -1.3060001 1835268
-0.0062191826 0.46394098 -1.3060001 983809
-0.0037315628 0.45896575 -1.3060001 1180673
-0.022474421 0.43200573 -1.3110001 327937
-0.022474423 0.43700004 -1.3110001 262401
-0.022474421 0.44199431 -1.3110001 196865
-0.021225851 0.44574004 -1.3110001 459009
-0.022058235 0.4523991 -1.3110001 655617
-0.022474425 0.45697719 -1.3110001 327937
-0.022474425 0.46197146 -1.3110001 262657
-0.021225853 0.47320861 -1.3110001 262657
-0.022474425 0.47695428 -1.3110001 196865
-0.022474425 0.48194861 -1.3110001 131329
-0.022474427 0.49693149 -1.3110001 262401
-0.022058237 0.50234199 -1.3110001 131329
-0.022474427 0.50691998 -1.3110001 131329
-0.021225855 0.51066571 -1.3110001 196865
-0.017480135 0.43200576 -1.3110001 524545
-0.017480135 0.43700004 -1.3110001 590081
-0.017480135 0.44199431 -1.3110001 393474
-0.017480135 0.44698858 -1.3110001 786689
-0.017480137 0.45198292 -1.3110001 655617
-0.017480137 0.45697719 -1.3110001 524801
-0.017480137 0.46197146 -1.3110001 459265
-0.017480137 0.46696573 -1.3110001 590081
-0.017480137 0.47196004 -1.3110001 393473
-0.017480137 0.47695431 -1.3110001 262657
-0.017480137 0.48194861 -1.3110001 131329
-0.017480137 0.48694286 -1.3110001 327937
-0.017480139 0.49193716 -1.3110001 196865
-0.017480139 0.49693149 -1.3110001 131329
-0.017063949 0.50234199 -1.3110001 131329
-0.016231567 0.50691998 -1.3110001 196865
-0.016231567 0.51066571 -1.3110001 196865
-0.012485847 0.4032886 -1.3110001 2556163
-0.012485847 0.40703434 -1.3110001 2425091
-0.012485847 0.41078001 -1.3110001 2162945
-0.012485848 0.43200573 -1.3110001 1376513
-0.012485849 0.43700004 -1.3110001 1048834
-0.012485849 0.44199431 -1.3110001 721158
-0.012485849 0.44698861 -1.3110001 786703
-0.01248585 0.45198289 -1.3110001 721153
-0.012485849 0.45697719 -1.3110001 787201
-0.01248585 0.46197146 -1.3110001 590593
-0.01248585 0.46696573 -1.3110001 917761
-0.012485851 0.47196004 -1.3110001 655617
-0.012485851 0.47695428 -1.3110001 393473
-0.012902042 0.48153242 -1.3110001 131330
-0.013734423 0.48694289 -1.3110001 590081
-0.012485851 0.49193716 -1.3110001 327937
-0.012485851 0.49693149 -1.3110001 327937
-0.012485852 0.50317436 -1.3110001 131329
-0.012485852 0.50567144 -1.3110001 131329
-0.0062429891 0.39829433 -1.3110001 6305293
-0.0070753708 0.40245622 -1.3110001 6238734
-0.0074915611 0.40703431 -1.3110001 6435335
-0.0074915616 0.41078001 -1.3110001 6302739
-0.0062429905 0.42326576 -1.3110001 4392449
-0.007491562 0.42701143 -1.3110001 3867137
-0.0079077529 0.43158957 -1.3110001 2687489
-0.007491563 0.44698861 -1.3110001 1900805
-0.0070753726 0.4515667 -1.3110001 1638657
-0.0070753731 0.45739338 -1.3110001 1115393
-0.007491563 0.46197146 -1.3110001 591105
-0.0079077547 0.46738192 -1.3110001 1507841
-0.0074915639 0.47196007 -1.3110001 983297
-0.0074915644 0.47695431 -1.3110001 590081
-0.0074915639 0.48194861 -1.3110001 327937
-0.0074915648 0.48694286 -1.3110001 459009
-0.0074915644 0.49193716 -1.3110001 196865
-0.0074915648 0.49693149 -1.3110001 524545
-0.0074915653 0.50192577 -1.3110001 262401
-0.0074915653 0.50567144 -1.3110001 262401
-0.0037458485 0.44324288 -1.3110001 5576450
-0.0037458488 0.44698861 -1.3110001 3277057
-0.022142358 0.40816891 -1.3160002 590337
-0.022560135 0.41234669 -1.3160001 590081
-0.022560135 0.42864004 -1.3160001 393473
-0.022560136 0.46749336 -1.3160001 327937
-0.022560136 0.4712534 -1.3160001 327937
-0.021306805 0.51512003 -1.3160001 131329
-0.017546801 0.39981338 -1.3160001 852225
-0.017546801 0.40357333 -1.3160001 917762
-0.017546803 0.40858668 -1.3160001 983810
-0.017546803 0.41360003 -1.3160001 786945
-0.01629347 0.41736001 -1.3160001 721409
-0.017546803 0.42488003 -1.3160001 852225
-0.017546803 0.42864001 -1.3160001 524545
-0.018800139 0.50258672 -1.3160001 131329
-0.018800139 0.50760001 -1.3160001 262401
-0.018800139 0.51136005 -1.3160001 327937
-0.012533466 0.39981338 -1.3160001 2162952
-0.012533466 0.40232003 -1.3160001 2359553
-0.012533466 0.41485336 -1.3160001 1901057
-0.012533467 0.41861337 -1.3160001 1704449
-0.012533467 0.42362669 -1.3160001 1835265
-0.012533467 0.42864004 -1.3160001 1900801
-0.011280137 0.48629338 -1.3160001 262401
-0.011280137 0.49005336 -1.3160001 590081
-0.012533471 0.50258672 -1.3160001 262401
-0.012533471 0.51136005 -1.3160001 131329
-0.0079379119 0.39814228 -1.3160002 6106632
-0.0087734675 0.40232003 -1.3160001 6039564
-0.0075201336 0.41485336 -1.3160001 6103818
-0.0075201336 0.41861337 -1.3160001 5180673
-0.0079379128 0.42320892 -1.3160002 4065025
-0.0087734694 0.45496002 -1.3160001 1376769
-0.0087734694 0.45746669 -1.3160001 1114881
-0.0075201378 0.51010674 -1.3160001 393473
-0.0037601327 0.3935467 -1.3160001 6697755
-0.0037601353 0.45496002 -1.3160001 1901313
-0.021387752 0.40259051 -1.3210001 721153
-0.02264585 0.4063648 -1.3210001 590081
-0.02264585 0.41768765 -1.3210001 655617
-0.022226486 0.42230067 -1.3210001 655617
-0.02264585 0.4264943 -1.3210001 524545
-0.017613467 0.3988162 -1.3210001 655617
-0.018871564 0.41894573 -1.3210001 721153
-0.017613469 0.42272002 -1.3210001 721153
-0.017613472 0.51707715 -1.3210001 65793
-0.017613474 0.53846478 -1.3210001 2969425
-0.01132299 0.37617052 -1.3210001 3997989
-0.01132299 0.39252573 -1.3210001 3211524
-0.012581087 0.3988162 -1.3210001 1966350
-0.012581091 0.51707715 -1.3210001 65793
-0.013839187 0.53846478 -1.3210001 2965326
-0.013839187 0.54223907 -1.3210001 11768937
-0.0062906081 0.36610574 -1.3210001 6497549
-0.007129339 0.37700924 -1.3210001 6433551
-0.0075487043 0.38120288 -1.3210001 6499343
-0.0075487047 0.38749334 -1.3210001 6170119
-0.0075487052 0.39252573 -1.3210001 6171154
-0.0075487047 0.39630002 -1.3210001 6106894
-0.0075487099 0.514561 -1.3210001 262401
-0.0075487103 0.51707715 -1.3210001 131329
-0.0037744176 0.36610574 -1.3210001 6759446
-0.0037744185 0.38623527 -1.3210001 6893068
-0.022731563 0.38769716 -1.3260001 393473
-0.022731561 0.39148575 -1.3260001 196865
-0.022731563 0.39653718 -1.3260001 327937
-0.021468705 0.40032575 -1.3260001 590081
-0.022731569 0.52156007 -1.3260001 131329
-0.021468712 0.53418857 -1.3260001 327940
