# .PCD v0.7 - Point Cloud Data file format
VERSION 0.7
FIELDS x y z rgba
SIZE 4 4 4 4
TYPE F F F U
COUNT 1 1 1 1
WIDTH 1169
HEIGHT 1
VIEWPOINT 0 0 0 1 0 0 0
POINTS 1169
DATA ascii
0.078159943 -0.53130192 -0.97700006 3412504
0.07722947 -0.52106667 -0.97700012 3218469
0.07722947 -0.51734483 -0.97700012 3218485
0.07722947 -0.51269233 -0.97700012 3415331
0.07660915 -0.50772989 -0.97700012 3547407
0.075368509 -0.50338763 -0.97700006 3350811
0.084673278 -0.55549431 -0.97700006 2628672
0.084673278 -0.5527029 -0.97700006 3218767
0.084052965 -0.54929113 -0.97700012 3415085
0.084673278 -0.54246759 -0.97700006 3415089
0.083184518 -0.53204632 -0.97700006 3218444
0.083742812 -0.52758002 -0.97700012 3217454
0.083044946 -0.52176452 -0.97700012 3216164
0.082440138 -0.51753092 -0.97700006 3020591
0.081416614 -0.51315761 -0.97700006 3152922
0.080951378 -0.5089705 -0.97700006 3350035
0.087464705 -0.55642474 -0.97700006 2561569
0.087464705 -0.5527029 -0.97700006 2824746
0.087278612 -0.54767835 -0.97700006 3218476
0.087464713 -0.54246771 -0.97700012 3284286
0.087464705 -0.53781527 -0.97700006 3087668
0.087464705 -0.5322324 -0.97700006 3415330
0.087464713 -0.52758002 -0.97700012 3216686
0.087464713 -0.52199715 -0.97700012 3479847
0.088395178 -0.51827526 -0.97700006 3677738
0.091496766 -0.52261746 -0.97700012 3546412
0.071816392 -0.50322437 -0.9816364 3743769
0.072206125 -0.49703479 -0.98210001 3810356
0.078711055 -0.50742221 -0.98000002 3611915
0.077808253 -0.50299418 -0.98218173 3350067
0.076767556 -0.49805337 -0.98300004 3417132
0.084933273 -0.51706666 -0.98000002 2890296
0.083999947 -0.51240003 -0.98000002 3087886
0.083066612 -0.50773335 -0.98000002 3218719
0.082409464 -0.50394428 -0.98171443 3021617
0.088666603 -0.55159998 -0.98000002 3087402
0.087676667 -0.51711649 -0.98085713 3087655
0.08818908 -0.51247066 -0.98299998 3219216
0.087761462 -0.50766557 -0.98240006 3022618
0.085193269 -0.50460672 -0.98300004 3020869
0.090533279 -0.54973334 -0.98000002 3218461
0.091434546 -0.50772732 -0.98300004 3219492
0.072233275 -0.49249998 -0.98500007 3679528
0.072379932 -0.48785815 -0.98699993 3678769
0.072428823 -0.48254576 -0.98766667 3744048
0.072076887 -0.47781563 -0.98800004 3744804
0.079738036 -0.50000483 -0.98500007 3218991
0.07866089 -0.49655357 -0.98560011 3416348
0.077982128 -0.49230853 -0.98650008 3417113
0.076923557 -0.4876802 -0.9874 3351089
0.077158026 -0.48270863 -0.98800004 3546417
0.076217078 -0.47894478 -0.98800004 4201252
0.083021373 -0.50141191 -0.98500007 3086130
0.082803749 -0.49776384 -0.98800004 2891810
0.082803749 -0.49305907 -0.98800004 3481373
0.088180892 -0.50563335 -0.98500007 3088425
0.087361522 -0.50255847 -0.98633343 3349030
0.0875085 -0.49776378 -0.98800004 3939098
0.087508507 -0.4935295 -0.98800004 3611921
0.091272317 -0.49305904 -0.98800004 3349519
0.073145173 -0.47756764 -0.99100006 3679257
0.072673261 -0.47284862 -0.99100006 3679010
0.072673261 -0.46718571 -0.99100006 4202301
0.072893277 -0.46405602 -0.99400008 4068909
0.078336127 -0.48039907 -0.99100006 3939624
0.077392317 -0.47756761 -0.99100006 3743261
0.077471361 -0.47332478 -0.9920001 3546917
0.077471368 -0.46765622 -0.99200004 3742778
0.077626593 -0.46481335 -0.99400002 3875375
0.083055176 -0.49172479 -0.99100006 3611433
0.082111359 -0.48794958 -0.99100006 3415862
0.082111359 -0.48228672 -0.99100006 3743281
0.082410172 -0.47721905 -0.99175006 3939114
0.081057236 -0.47277826 -0.99349999 3612728
0.081413269 -0.46765333 -0.99400002 3349827
0.087774225 -0.49247986 -0.99100012 3480349
0.087774217 -0.48794958 -0.99100006 3546672
0.087804377 -0.48244825 -0.99133343 3745071
0.087609269 -0.47891298 -0.99340004 3874606
0.072480254 -0.46305114 -0.9970001 3807274
0.07714875 -0.4621807 -0.9970001 3677214
0.084507555 -0.47571144 -0.99700004 3678245
0.084032789 -0.47238809 -0.99700004 3940410
0.082608506 -0.46684927 -0.9970001 3022665
0.081469074 -0.46241808 -0.99700004 3414574
0.087039627 -0.47697747 -0.9970001 3744268
0.086406603 -0.47191337 -0.99700004 4202022
0.091723934 -0.47874996 -0.99700004 3547682
0.072380878 -0.46190476 -1 3743003
0.072380878 -0.45809525 -1 3745309
0.072380878 -0.45238096 -1 4006191
0.072380878 -0.44761902 -1 4136228
0.072461955 -0.44239941 -1.001125 4464457
0.077380702 -0.45798746 -1.0006001 3810097
0.076963268 -0.4524807 -1.0007501 4008739
0.077556595 -0.44790974 -1.0022501 4072988
0.076519743 -0.44365311 -1.0017999 4202807
0.084761836 -0.46666664 -1 3087173
0.084126927 -0.46317458 -1 3480626
0.082331359 -0.45806733 -1.0013335 3808300
0.082150407 -0.45278287 -1.003 4073258
0.087936446 -0.47587299 -1 3809563
0.087936446 -0.47206348 -1 3743275
0.087618984 -0.46761903 -1 3480889
0.087862603 -0.4625617 -1.0006001 4070961
0.086685441 -0.45804256 -1.0026668 3547187
0.085016124 -0.45373809 -1.003 3416881
0.090747558 -0.45946953 -1.003 3744562
0.072863437 -0.43813843 -1.0066667 4597570
0.07231994 -0.43360001 -1.008 3942195
0.078220345 -0.44205716 -1.0068572 4334139
0.076961845 -0.43854514 -1.0076001 4269367
0.075839937 -0.43487999 -1.008 4269360
0.082396127 -0.45126286 -1.006 4139560
0.082423747 -0.44757813 -1.0063334 3876912
0.082559936 -0.44256002 -1.008 4333606
0.081599936 -0.43871999 -1.008 3809062
0.088464066 -0.45573398 -1.006 3614263
0.08732184 -0.45195982 -1.0075556 3811386
0.087359935 -0.44755197 -1.008 3548729
0.087359928 -0.44448 -1.008 3810887
0.091199934 -0.44735998 -1.008 4073269
0.091199934 -0.44448 -1.008 4400705
0.072214223 -0.43193775 -1.011 3876396
0.072892793 -0.42707667 -1.0115001 4268575
0.072137594 -0.42203531 -1.0123637 4464686
0.07242851 -0.41718858 -1.0140001 4268601
0.072187074 -0.41260141 -1.0140001 4008235
0.07895422 -0.43713713 -1.011 4335146
0.077991366 -0.43232289 -1.011 4138272
0.077571772 -0.42754251 -1.0127144 4334104
0.077257074 -0.42201716 -1.0140001 4465437
0.077257067 -0.4181543 -1.0140001 4204843
0.083768502 -0.44002572 -1.011 4005147
0.082805648 -0.43713713 -1.011 4333867
0.082805656 -0.43232292 -1.0110002 4466224
0.082265645 -0.42725211 -1.01325 4793401
0.080926783 -0.42240342 -1.0140001 4465946
0.08015421 -0.4181543 -1.0140001 3876397
0.087619938 -0.44676572 -1.011 3615051
0.087619938 -0.44195145 -1.011 4201773
0.087933004 -0.43690857 -1.0114287 4202021
0.08751066 -0.43272215 -1.0125 4268335
0.087638512 -0.42805284 -1.0140001 4268583
0.091471367 -0.45158002 -1.011 4071987
0.091742791 -0.42974287 -1.0140001 4137787
0.074579932 -0.41164288 -1.0170001 3877160
0.074095644 -0.40728432 -1.0170001 4075057
0.072642788 -0.40228003 -1.0170002 4074537
0.077485651 -0.41648576 -1.0170001 4074019
0.077162787 -0.4129343 -1.0170001 3614735
0.076517075 -0.40776861 -1.0170001 4007978
0.076517075 -0.40292573 -1.0170001 4270381
0.084265642 -0.42520291 -1.0170001 4662078
0.08361993 -0.4219743 -1.0170001 4204346
0.081844218 -0.41793859 -1.0170001 4138296
0.080391355 -0.41358003 -1.0170001 4138284
0.087171361 -0.42520291 -1.0170001 4400435
0.087171361 -0.42229718 -1.0170001 4466232
0.090077072 -0.42326576 -1.0170001 4793908
0.073576123 -0.40094385 -1.0210001 4270381
0.072062314 -0.39244431 -1.0225 4466465
0.072097063 -0.38776571 -1.023 4270132
0.071902208 -0.383284 -1.023 4467773
0.072165623 0.15269373 -1.0212001 4920840
0.07285706 0.15704763 -1.0200002 4986886
0.072595909 0.16212629 -1.0217999 5315335
0.078685649 -0.41188574 -1.0200001 3417642
0.078685649 -0.40702862 -1.0200002 4335662
0.077579454 -0.40153286 -1.0225 4467494
0.076968499 -0.39750856 -1.023 4532779
0.076968506 -0.39263716 -1.0229999 4333866
0.075994208 -0.38776571 -1.023 3942192
0.075019926 -0.38484284 -1.023 3945016
0.075019903 0.15685999 -1.023 4656136
0.083786793 -0.41737548 -1.0206002 4727867
0.082766213 -0.41226912 -1.0223999 4270643
0.082814217 -0.40725145 -1.023 4270880
0.082535841 -0.40293676 -1.023 4467510
0.080865636 -0.39653426 -1.023 4008206
0.087428503 -0.42062861 -1.0200001 4138809
0.087642312 -0.41776335 -1.0225 4466480
0.087685645 -0.41212285 -1.023 4468007
0.087685637 -0.40822572 -1.023 4270607
0.086711347 -0.40237999 -1.023 4402206
0.07263422 -0.38076004 -1.026 4337454
0.072308503 -0.37717715 -1.026 4468266
0.071819931 -0.37229142 -1.026 4139824
0.078659929 -0.38743716 -1.026 4335412
0.076542795 -0.38271433 -1.026 4206383
0.075239927 -0.37815431 -1.026 4534562
0.075239904 0.15341143 -1.026 4656648
0.076542765 0.15732001 -1.026 4656647
0.077194192 0.16122858 -1.026 4788993
0.083057068 -0.40160573 -1.026 4074023
0.082275361 -0.39769715 -1.026 3877402
0.082079925 -0.39281142 -1.026 4333102
0.081102788 -0.38792574 -1.026 4269883
0.081102788 -0.38401717 -1.026 4272174
0.087942787 -0.40649146 -1.026 3944218
0.087454215 -0.4020943 -1.026 4336661
0.085988499 -0.39769718 -1.026 4402976
0.08566279 -0.39313716 -1.026 4533556
0.073571362 -0.37570477 -1.0300001 4467759
0.073571362 -0.37178096 -1.0300001 4337199
0.072696596 -0.36839098 -1.0315001 4598573
0.072801828 -0.36302572 -1.033 4402206
0.072801828 -0.35909045 -1.033 3944242
0.071817994 0.17216666 -1.033 6236687
0.078803107 -0.38224447 -1.0300001 4402724
0.077826478 -0.37783253 -1.0311251 4730404
0.077447422 -0.37297368 -1.032625 4467495
0.075753257 -0.36794478 -1.033 4467752
0.075753257 -0.36105809 -1.033 4336686
0.083380885 -0.39140004 -1.0300001 4203835
0.083380885 -0.38747621 -1.0300001 4140081
0.082693264 -0.38242629 -1.0312002 4861725
0.082088739 -0.37849027 -1.03225 4729622
0.081656113 -0.37286383 -1.033 4269591
0.081656113 -0.36892858 -1.033 4270636
0.089266598 -0.40120956 -1.0300001 4336660
0.089266606 -0.39728576 -1.0300001 4598331
0.087975852 -0.39188698 -1.0312859 4336692
0.08702442 -0.38691565 -1.0300002 4335651
0.086996801 -0.382983 -1.033 4663596
0.09149421 -0.38466951 -1.033 4334896
0.073013261 -0.35717332 -1.036 4402475
0.072026595 -0.35224 -1.0360001 4730665
0.072326116 -0.34681594 -1.0367501 4730661
0.071923465 -0.34265691 -1.0385716 4796462
0.072235167 -0.33841714 -1.039 4928047
0.07421419 0.16722952 -1.039 5447169
0.07334213 0.17266667 -1.036 5972493
0.072459899 0.17754327 -1.0381429 6433306
0.079919927 -0.37197331 -1.036 4205093
0.078510404 -0.3677448 -1.0360001 4401700
0.078193255 -0.36210668 -1.0360001 4468776
0.077946596 -0.35717332 -1.0360001 4272429
0.077946588 -0.35224 -1.0360001 4730927
0.077146113 -0.34715575 -1.0385001 4861201
0.077182785 -0.34336478 -1.039 4927261
0.077126332 0.17205358 -1.03825 5249290
0.076193243 0.18207239 -1.039 5973021
0.083866589 -0.37690666 -1.036 4466980
0.083866589 -0.37295997 -1.036 4139804
0.083077259 -0.367632 -1.0360001 4401958
0.082879923 -0.36210668 -1.0360001 4468017
0.082879923 -0.35717332 -1.036 4402733
0.083000399 -0.3527481 -1.0375001 4598566
0.081470728 -0.34798259 -1.039 4729630
0.089786589 -0.38282666 -1.036 4531252
0.087813251 -0.37789336 -1.0360001 4597294
0.087813258 -0.37295997 -1.0360001 4729127
0.087813251 -0.36802664 -1.0360001 4466218
0.087813251 -0.36210668 -1.0360001 4073526
0.087125644 -0.35699278 -1.0372 4336685
0.0868304 -0.35265908 -1.0384001 4598549
0.086088501 -0.3493019 -1.039 4598289
0.090046592 -0.35721812 -1.039 4336956
0.072443739 -0.33641714 -1.0420001 4994348
0.074428476 0.16969715 -1.0420001 5578245
0.072443716 0.18359047 -1.0420001 6894097
0.077405639 -0.34137905 -1.0420001 4533546
0.077405639 -0.33840191 -1.0420001 4927278
0.077405617 0.16771239 -1.0420001 4987905
0.077405617 0.17763621 -1.0420001 5642796
0.078397997 0.18160571 -1.0420001 5445174
0.083690733 -0.34700257 -1.0420001 4663592
0.08211945 -0.34261954 -1.0419999 4991795
0.080382764 0.17565143 -1.0420001 4526115
0.088321835 -0.3503105 -1.0420001 4664088
0.087329455 -0.34733331 -1.0420001 4794660
0.086337075 -0.34435618 -1.0420001 4925998
0.090968177 -0.35361844 -1.0420001 4731431
0.074642792 -0.33539528 -1.0450001 5125421
0.073979303 -0.3320778 -1.0450001 4992802
0.073846601 -0.32783145 -1.0450001 4795164
0.074714221 -0.32176766 -1.0460001 4665868
0.072483137 -0.31757253 -1.0461252 4993337
0.072860882 -0.31240383 -1.0480002 5124667
0.07464277 0.18411906 -1.0450001 6497801
0.077628501 -0.3363905 -1.0450001 5124149
0.077814698 -0.33220625 -1.0475001 4992569
0.077796355 -0.32714167 -1.04725 4993315
0.077778026 -0.3220762 -1.0470002 4600867
0.077851363 -0.31739432 -1.0480001 4798006
0.077352315 -0.31240383 -1.0480001 4994356
0.084595166 -0.34136668 -1.0450001 5187894
0.082631677 -0.33749273 -1.0453335 5058087
0.082841836 -0.33236572 -1.0480002 4927528
0.082841836 -0.32737526 -1.0480002 5058595
0.082592316 -0.32263431 -1.0480002 4599863
0.081843741 -0.31839243 -1.0480001 4535376
0.088576123 -0.34534764 -1.0450001 4991537
0.087580889 -0.34236193 -1.0450001 4992298
0.087665655 -0.33770764 -1.0460001 4795416
0.087832317 -0.33236575 -1.0480002 4664870
0.087832317 -0.32737526 -1.0480001 4533533
0.086834222 -0.32338288 -1.0480001 4729899
0.090826601 -0.32837334 -1.0480001 4271678
0.072337449 -0.30718401 -1.052 5059109
0.073138975 -0.30257523 -1.052 5059366
0.072137065 -0.29756573 -1.052 5255743
0.072137065 -0.29255623 -1.052 5189965
0.072137065 -0.28854859 -1.052 5059150
0.073138952 0.1873562 -1.052 7155990
0.079150401 -0.31560001 -1.052 4929076
0.079150401 -0.3115924 -1.052 4994601
0.077146597 -0.30758479 -1.052 4993322
0.076144695 -0.30257523 -1.052 5124640
0.076144695 -0.2975657 -1.052 5188907
0.076144695 -0.29255623 -1.052 5057341
0.076144695 -0.28955048 -1.052 5057340
0.082156122 -0.31660193 -1.052 4797755
0.082156122 -0.31259429 -1.052 4928305
0.081154212 -0.30858666 -1.052 4928318
0.089169458 -0.32561907 -1.052 4467767
0.087666601 -0.32211238 -1.052 4861241
0.086497709 -0.31827176 -1.052 4860977
0.085161835 -0.31259429 -1.052 4927023
0.072342791 -0.28635716 -1.0550001 5189188
0.072479934 -0.28287148 -1.0570002 5122859
0.072212629 -0.277767 -1.0580001 5256236
0.073347531 0.18990001 -1.0550001 7155739
0.079376131 -0.30243334 -1.0550001 5059116
0.079376124 -0.29740953 -1.0550001 4993604
0.079376131 -0.29238576 -1.0550001 5060396
0.077755995 -0.28711587 -1.056875 4993075
0.076334596 -0.28257623 -1.0574001 5123096
0.075571336 0.18842478 -1.0580001 6629899
0.075571336 0.19044001 -1.0580001 6695437
0.083395168 -0.31047145 -1.0550001 5058370
0.082952075 -0.30666882 -1.0557501 4862014
0.082284316 -0.30237433 -1.0562 4927780
0.082733639 -0.29731241 -1.0568001 4731427
0.082330599 -0.29248041 -1.0568001 5190931
0.082288817 -0.28851494 -1.0580001 4993571
0.088753894 -0.31716985 -1.0550001 4730662
0.088061027 -0.31244695 -1.0558574 4729644
0.08755789 -0.30752453 -1.0567144 4599348
0.08556661 -0.3030048 -1.0570002 5057829
0.085647553 -0.29724765 -1.0580001 4600611
0.085647553 -0.29321715 -1.0580001 5452316
0.073091045 -0.27720731 -1.0610001 5387047
0.073091045 -0.27249178 -1.0610001 4993329
0.072754219 -0.26777622 -1.0610001 5255487
0.07295993 -0.26245332 -1.0640001 4005930
0.072959922 -0.25738668 -1.064 3347983
0.072959922 -0.25231999 -1.0640001 3150345
0.073764674 0.19300097 -1.0610001 7221791
0.073764674 0.19502193 -1.0610001 7288100
0.079827555 -0.28293335 -1.0610001 5123872
0.077806599 -0.277881 -1.061 5254948
0.077806607 -0.27282864 -1.0610001 5123632
0.07755398 -0.26802886 -1.061 5058340
0.077013262 -0.26245332 -1.0640001 3939608
0.077013262 -0.25738668 -1.064 3346698
0.076675482 -0.25299558 -1.064 3085061
0.083195806 -0.28663844 -1.0610001 4927264
0.08285898 -0.28293335 -1.0610001 5058830
0.08285898 -0.277881 -1.0610001 5124641
0.082977548 -0.27321431 -1.0625 5190964
0.082525924 -0.26781034 -1.0622859 5190432
0.081826597 -0.26270667 -1.064 3742482
0.081404373 -0.25772446 -1.064 3150601
0.089932315 -0.30617431 -1.0610001 4403472
0.088921845 -0.30213243 -1.0610001 4795695
0.088921838 -0.29708004 -1.0610001 4861743
0.088163979 -0.29177502 -1.061 5320237
0.087911367 -0.28697526 -1.0610001 5123112
0.087065645 -0.28245336 -1.0630001 5124366
0.087146595 -0.27765334 -1.064 4862249
0.087146595 -0.2725867 -1.0640001 4927799
0.086808816 -0.26785779 -1.064 4992042
0.086133257 -0.26346666 -1.064 4073241
0.090186588 -0.27461332 -1.064 5123636
0.072217055 -0.24716574 -1.068 3216138
0.072217062 -0.24309716 -1.0680001 3216645
0.077641822 -0.25259051 -1.0680001 2888963
0.077302769 -0.24716572 -1.0680001 3217176
0.07628563 -0.24309716 -1.0680001 3479565
0.0783199 0.19020572 -1.0680001 6170642
0.084422782 -0.26140574 -1.0680001 3218955
0.082727544 -0.25665909 -1.0680001 3151619
0.081981629 -0.25204802 -1.0680001 2889985
0.081167921 -0.24757259 -1.0680001 3349281
0.082388468 0.18308572 -1.0680001 4918823
0.08849135 -0.26649144 -1.0680001 4663596
0.087813258 -0.26208383 -1.0680001 3808788
0.087135158 -0.25869337 -1.0680001 3479556
0.072982058 -0.24139787 -1.07175 3216914
0.072242416 -0.23765321 -1.0721251 3217422
0.072600871 -0.23211588 -1.0736667 3217155
0.072622776 -0.2270743 -1.074 3282950
0.072111338 -0.22349428 -1.074 3151113
0.074668467 0.19945714 -1.074 7419193
0.077854775 -0.24173601 -1.0728 3675149
0.077737048 -0.23730285 -1.074 3346437
0.077737048 -0.23218857 -1.074 3411722
0.077396095 -0.22741525 -1.0740001 3214875
0.078539908 0.19278002 -1.0710001 6236685
0.07671418 0.19638857 -1.074 6827542
0.084659912 -0.25398001 -1.0710001 3413505
0.084149912 -0.24735002 -1.0710001 3348748
0.082775474 -0.24219015 -1.073 3216149
0.080805622 -0.23730285 -1.074 3019275
0.080805622 -0.23218857 -1.074 3214864
0.082851328 0.17490858 -1.074 4723713
0.083874181 0.17797713 -1.074 4395786
0.084778465 0.18181287 -1.0725 4854044
0.082851328 0.18718284 -1.0740001 5115932
0.080805607 0.19127429 -1.074 5642522
0.088059925 -0.25670004 -1.0710001 3543554
0.087719917 -0.25296003 -1.0710001 3871254
0.087761343 -0.24797478 -1.0715001 3347984
0.08796563 -0.24241714 -1.074 3086353
0.073303908 -0.22155468 -1.0780001 3150853
0.072893247 -0.21765333 -1.0780001 3019526
0.07289324 -0.21252002 -1.0780001 2953998
0.074946567 0.20328 -1.0780001 7551041
0.079053245 -0.22689335 -1.0780001 3083291
0.078026585 -0.22278669 -1.0780001 3150873
0.078026578 -0.21765333 -1.0780001 2823697
0.078026585 -0.21252 -1.0780001 3084549
0.079053231 0.19609334 -1.0780001 6368015
0.076999903 0.20225334 -1.0780001 7091803
0.083159916 -0.23716001 -1.0780001 2822420
0.082475476 -0.23236892 -1.0780001 3083796
0.082133248 -0.22792001 -1.0780001 3149087
0.082133248 -0.22278666 -1.0780001 3280910
0.081791028 -0.21799557 -1.0780001 3085862
0.083159901 0.18993334 -1.0780001 5049880
0.082475461 0.19335556 -1.0780001 5313293
0.087266587 -0.23716 -1.0780001 3215903
0.087266587 -0.23202668 -1.0780001 3279895
0.086239912 -0.22792001 -1.0780001 3214630
0.086034581 -0.22319734 -1.0780001 3739153
0.087266564 0.17966667 -1.0780001 4985628
0.087266564 0.18274668 -1.0780001 5048872
0.085213237 0.18890667 -1.0780001 4788746
0.085213237 0.19198668 -1.0780001 5115399
0.09137325 -0.24126668 -1.0780001 2825750
0.072066575 -0.20796382 -1.0810001 2626054
0.073096089 0.20796382 -1.0810001 8012065
0.077214204 -0.20796382 -1.0810002 3084803
0.079273246 -0.20487526 -1.0810001 3282181
0.079273231 0.1986981 -1.0810001 6565649
0.077214181 0.20075716 -1.0810001 7091002
0.075155139 0.2069343 -1.0810001 7618077
0.082705006 -0.21585685 -1.0810001 3347997
0.082361825 -0.21208191 -1.0810001 3282440
0.082361825 -0.20899336 -1.0810001 3217666
0.08236181 0.19663906 -1.0810001 5579017
0.089568488 -0.22752479 -1.0810001 3279629
0.088882141 -0.22203401 -1.0810001 3740686
0.086921148 -0.21752371 -1.0810002 3479062
0.085450396 -0.21311145 -1.0810001 3412487
0.087509431 0.18737334 -1.0810001 4591110
0.091627538 -0.22752479 -1.0810001 3149599
0.091627538 -0.22237717 -1.0810001 3411980
0.072677694 -0.20218889 -1.085 2952464
0.072660491 -0.19727848 -1.0868 2952724
0.07253325 -0.19273143 -1.0880001 2953748
0.07253325 -0.18755049 -1.0880002 3019538
0.072333232 0.21286666 -1.085 8209696
0.072434664 0.21626525 -1.0865 8274967
0.076466575 -0.20563334 -1.085 3019527
0.077499911 -0.20253335 -1.085 3150346
0.077667221 -0.19778985 -1.0873334 3280918
0.077299722 -0.19293867 -1.0880002 3280908
0.076678008 -0.18858668 -1.0880001 3279886
0.079566568 0.20253333 -1.085 6763561
0.077607043 0.20695382 -1.0865 7092264
0.075641803 0.21138287 -1.0880001 7683602
0.082666576 -0.20666668 -1.085 3151624
0.082780868 -0.20281191 -1.0865 3020298
0.08289516 -0.1979124 -1.0880002 2954776
0.082666561 0.19943334 -1.085 5449224
0.083240539 0.20274794 -1.0880001 5318406
0.089899912 -0.21700001 -1.085 3346478
0.088246576 -0.21266 -1.085 3477260
0.086799912 -0.20770001 -1.085 3216910
0.086919919 -0.2028119 -1.0865 3216652
0.087039918 -0.1979124 -1.0880002 3346701
0.086980611 0.19881216 -1.08725 5049350
0.087039903 0.20205715 -1.0880001 5051908
0.090977438 -0.19832687 -1.0880002 3410957
0.073079601 -0.18252604 -1.0910001 3150855
0.072733253 -0.17975524 -1.0910001 3085834
0.073079586 0.21785367 -1.0910001 8274463
0.07688944 -0.18598954 -1.0910001 3083265
0.07688944 -0.18287238 -1.0910001 2954249
0.07688944 -0.17975524 -1.0910001 3348231
0.075850375 0.21716096 -1.0910001 8009748
0.082344443 -0.19196406 -1.0910001 3413258
0.082084678 -0.18702859 -1.0910001 3609603
0.081669062 -0.1830802 -1.0910001 3412505
0.082084663 0.20469239 -1.0910001 5909769
0.080006562 0.20677048 -1.0910001 6633252
0.087279916 -0.19222383 -1.0910001 3282445
0.087279916 -0.18702859 -1.0910001 3283463
0.086240873 -0.18391144 -1.0910001 3217921
0.073050626 -0.17740645 -1.0957501 2889227
0.073415138 0.22372381 -1.0960001 8078116
0.073150612 0.22781071 -1.09725 7949080
0.077277057 -0.17752716 -1.0965 3282951
0.078428484 -0.17463429 -1.098 3544342
0.078214183 0.21274287 -1.095 7158790
0.077590376 0.21676382 -1.0960001 7485713
0.077313237 0.22253524 -1.0970001 7485967
0.076337047 0.22692001 -1.098 7618060
0.082907058 -0.1809357 -1.095 3609364
0.08257468 -0.17769001 -1.0975001 3740679
0.082462758 0.20841335 -1.0960001 5909775
0.082611322 0.2112343 -1.098 5908239
0.087904483 -0.18228059 -1.0962001 3546113
0.087491348 -0.17812002 -1.098 3742467
0.09097705 -0.18300001 -1.098 3807491
0.073466577 -0.17527047 -1.102 2626569
0.072417058 -0.17212191 -1.1020001 2757895
0.072417058 -0.16813372 -1.1020001 3545606
0.072417043 0.23194475 -1.102 7947814
0.076615147 -0.17527047 -1.102 3151119
0.077664673 -0.17212191 -1.102 3413796
0.076615147 -0.16792381 -1.102 3612693
0.077664658 0.22879618 -1.102 7156496
0.081862763 -0.17527047 -1.102 3806221
0.081862763 -0.17212191 -1.102 3741453
0.082912289 -0.16897333 -1.102 4202497
0.082912274 0.2120038 -1.102 5909778
0.081337981 0.21725142 -1.102 6502411
0.087635145 -0.17579523 -1.102 3808792
0.085711025 -0.17247176 -1.102 4070664
0.085011326 0.21305333 -1.102 5314833
0.091308482 -0.17317143 -1.102 3547694
0.072614193 -0.16575 -1.105 4070149
0.072614193 -0.16206668 -1.105 3480070
0.073275626 -0.14232667 -1.1070001 1835521
0.073564291 -0.13763905 -1.1066002 3145992
0.072811343 -0.13295905 -1.108 3802133
0.073666565 0.23362857 -1.105 7684899
0.074091896 0.23789392 -1.1082002 7420715
0.078402288 -0.16680238 -1.105 3612448
0.077713244 -0.1628086 -1.1076667 3610661
0.077101819 -0.15948477 -1.1090001 3281168
0.078015134 0.23194477 -1.1070001 6825746
0.077101804 0.23869908 -1.1090001 6829600
0.081875153 -0.16690762 -1.105 3678220
0.082382768 -0.16370954 -1.1090001 3874580
0.083137989 0.21784286 -1.105 5779467
0.082236089 0.22350858 -1.1070001 5844249
0.081179902 0.22772762 -1.1070001 6171412
0.081326567 0.23130573 -1.1090001 5646608
0.088750713 -0.17223969 -1.105 3874320
0.087347537 -0.16732858 -1.105 3545352
0.087663732 -0.16370955 -1.1090001 3085338
0.085768946 0.21784286 -1.105 4923660
0.086959586 0.22215208 -1.1090001 5316110
0.072433248 -0.15723334 -1.1130002 2757124
0.073139921 -0.14734 -1.1130002 1442562
0.072079912 -0.13038 -1.113 4196611
0.073139898 0.24274001 -1.113 7617575
0.078086585 -0.16076666 -1.1130002 3543062
0.076319911 -0.15688001 -1.113 2887949
0.075259909 -0.14522 -1.113 1114627
0.075259909 -0.13249999 -1.113 3934230
0.0794999 0.23426001 -1.113 6433039
0.078793235 0.23708665 -1.1130002 6500118
0.0794999 0.24062 -1.113 6500880
0.082679912 -0.16112 -1.113 3869966
0.083739899 0.22790001 -1.113 5974047
0.083739899 0.23002 -1.113 5777689
0.086919911 -0.16112 -1.113 3280397
0.087979913 -0.15794 -1.113 3216906
0.085859895 0.22684 -1.113 5514526
0.085859895 0.23108 -1.113 5644814
0.091689914 -0.16165 -1.113 3479577
0.090099916 -0.15794 -1.113 3675668
0.073337056 -0.15305144 -1.1160001 2427649
0.072274178 0.24658287 -1.1160001 7748894
0.079714201 -0.15730286 -1.1160001 3083806
0.077163346 -0.15326402 -1.1160001 2755336
0.076738201 -0.14816229 -1.1160001 1704707
0.077588484 -0.14242285 -1.1160001 2294273
0.078651339 -0.13817143 -1.1160001 3212035
0.076525629 -0.13285714 -1.1160001 3867915
0.076525614 0.2433943 -1.1160001 7157790
0.082902774 -0.15730286 -1.1160001 3148554
0.083965607 0.23276572 -1.1160001 5646865
0.082902759 0.23808002 -1.1160001 6041368
0.086799912 -0.15694858 -1.1160001 3150855
0.088217057 -0.15411429 -1.1160001 3744777
0.090342775 -0.15411429 -1.1160001 3677714
0.073165148 -0.1271019 -1.1215 3934723
0.073599897 0.24853332 -1.12 7618584
0.072371013 0.25205112 -1.123 7815202
0.077866577 -0.13226667 -1.12 3932937
0.076649122 -0.12869936 -1.123 4064776
0.076581486 0.24755302 -1.1220001 7288854
0.082399905 -0.15226667 -1.12 3215108
0.082245149 -0.14739668 -1.1215 2557697
0.082208484 -0.14234795 -1.1210001 2556417
0.082564041 -0.1370108 -1.1210001 3343361
0.081795715 -0.13262287 -1.1212 4063491
0.081176579 -0.12923953 -1.1215 4719120
0.083199896 0.23573333 -1.12 5778699
0.079999894 0.24426667 -1.12 6631180
0.079999894 0.2464 -1.12 6827279
0.087300681 -0.15218724 -1.1206001 3809285
0.086631343 -0.1486638 -1.123 3479298
0.074059919 -0.12236001 -1.1270001 2950147
0.074059919 -0.11806667 -1.1270001 3016706
0.073523253 -0.11216334 -1.1270001 3409667
0.071913242 -0.10840668 -1.1270001 3869192
0.074059904 0.25438002 -1.1270001 7685667
0.07620658 -0.12558001 -1.1270001 3541254
0.076922126 0.25223336 -1.1270001 7354904
0.084793247 -0.14490002 -1.1270001 2819329
0.084793247 -0.13202001 -1.1270001 4391681
0.088013247 -0.14812002 -1.1270001 3544322
0.087476589 -0.14221668 -1.1270001 3081729
0.088013247 -0.13738668 -1.1270001 3605505
0.086939916 -0.13416667 -1.1270001 4129793
0.072707057 -0.10717572 -1.131 3999503
0.072212294 -0.10238827 -1.1316668 4457993
0.072234206 -0.097028583 -1.1320001 4588545
0.072234198 -0.092716202 -1.132 4786178
0.072298005 -0.087402858 -1.133 4851459
0.072952271 0.25838286 -1.1320001 7881754
0.074519888 0.26135999 -1.1340001 7815952
0.078735627 -0.12727001 -1.1325001 3670801
0.077658489 -0.12295714 -1.1325001 2622212
0.077658489 -0.11756429 -1.1325001 2950145
0.077658482 -0.11217143 -1.1325001 3475202
0.077759914 -0.108 -1.1340001 4129799
0.077543922 -0.1026 -1.1340001 4523535
0.077759914 -0.097200006 -1.1340001 4392193
0.077759914 -0.092879996 -1.1340001 4458498
0.076679915 -0.089639999 -1.1340001 4655106
0.078631327 0.25312856 -1.131 7354392
0.08197134 -0.12727001 -1.1325001 3867413
0.080999911 -0.1242 -1.1340001 3015177
0.080999911 -0.11664 -1.1340001 3080705
0.080999911 -0.11232001 -1.1340001 3474435
0.080999911 -0.108 -1.1340001 3998732
0.089402765 -0.14649144 -1.131 3280897
0.089402765 -0.14326 -1.131 2820353
0.088006102 -0.1318281 -1.1315001 4523777
0.087479912 -0.12852001 -1.1340001 4458241
0.074782759 -0.082369521 -1.138 4722189
0.073157042 -0.077492386 -1.138 4788243
0.072615139 -0.073234558 -1.138 4789253
0.079118006 -0.10296191 -1.138 4589838
0.078250967 -0.087355055 -1.138 4851458
0.076950386 -0.082369521 -1.138 4721420
0.076950386 -0.079118095 -1.138 4786720
0.076950371 0.25903046 -1.138 7487505
0.076950371 0.26119807 -1.138 7683588
0.082586192 -0.12203695 -1.138 2818307
0.083453245 -0.11705142 -1.138 3146497
0.083453245 -0.11271619 -1.138 3474436
0.082911342 -0.10675524 -1.138 3802126
0.081285626 -0.10187809 -1.138 4195073
0.081285626 -0.097542852 -1.138 4260609
0.082369432 -0.093207628 -1.138 4523273
0.081285626 -0.089956194 -1.138 4719619
0.087788492 -0.12680571 -1.138 4130305
0.085620865 -0.12463808 -1.138 3408387
0.085620865 -0.11596761 -1.138 3146497
0.085620865 -0.11271618 -1.138 3409157
0.072145306 -0.067069843 -1.1420001 4853513
0.079396099 -0.082659051 -1.1420001 4721671
0.078308485 -0.076677151 -1.1420001 5049371
0.076133244 -0.071782865 -1.1420001 4461580
0.075045623 -0.068520002 -1.1420001 4593180
0.083746582 -0.1022362 -1.1420001 3933445
0.083746582 -0.097885713 -1.1420001 4129543
0.083746582 -0.090272382 -1.1420001 4588550
0.082658961 -0.087009534 -1.1420001 4588294
0.081571341 -0.082659051 -1.1420001 4588545
0.088097058 -0.12507619 -1.1420001 3604994
0.086646907 -0.12217588 -1.1420001 3014913
0.087371975 -0.1178254 -1.1420001 3080961
0.088097058 -0.11311238 -1.1420001 3343108
0.087009445 -0.10767429 -1.1420002 3671314
0.085921824 -0.10223619 -1.1420001 3933961
0.085921824 -0.097885706 -1.1420001 4130318
0.085921824 -0.092447616 -1.1420001 4654873
0.085921824 -0.08809714 -1.1420001 4391950
0.090272292 -0.11637524 -1.1420001 3015425
0.090272292 -0.11311238 -1.1420001 3277570
0.091142386 -0.10810934 -1.1420001 3540236
0.072034195 -0.06439428 -1.146 4984336
0.079674192 -0.077491432 -1.146 5114137
0.078582764 -0.072034292 -1.146 4264977
0.076399907 -0.067668572 -1.146 4526114
0.084039904 -0.082948573 -1.146 4523529
0.082402758 -0.078037143 -1.146 4916738
0.088405631 -0.12114856 -1.146 3146497
0.088405631 -0.10259428 -1.146 3999492
0.088405631 -0.098228566 -1.146 4130313
0.088405631 -0.092771426 -1.1460001 4785935
0.087678015 -0.086950473 -1.1460001 4129550
0.08622276 -0.082948565 -1.146 4130578
0.091316104 -0.12260381 -1.1460001 3343105
0.090588488 -0.098228566 -1.146 4129795
0.090588488 -0.093862854 -1.146 4522502
0.072285622 -0.061333332 -1.1500001 5048585
0.072474182 -0.057100948 -1.153 5115169
0.072378457 0.27087665 -1.1515 8340502
0.079952285 -0.071190484 -1.1500001 3674127
0.078857049 -0.06790477 -1.1500001 4394523
0.076767042 -0.062508099 -1.1515 4787466
0.075768463 -0.057100948 -1.153 4788760
0.084333248 -0.076666668 -1.1500001 4785668
0.083346568 -0.072378576 -1.1515 4459009
0.081258938 -0.0680819 -1.153 4459016
0.080160856 -0.062591426 -1.1530001 4852231
0.088714197 -0.083238102 -1.1500001 3737114
0.087491326 -0.078279994 -1.1512001 4262411
0.08674942 -0.073572375 -1.153 4328961
0.07382752 -0.053993333 -1.1570001 5118234
0.078235134 -0.057299044 -1.1570001 4919303
0.076031327 -0.053993333 -1.1570001 4986127
0.083965041 -0.066775434 -1.1570001 4524545
0.08374466 -0.061706666 -1.1570001 4721674
0.081173554 -0.05766635 -1.1570001 5050372
0.089254186 -0.076031424 -1.1570001 3869957
0.088152282 -0.072725706 -1.1570001 4198657
0.087050378 -0.065012373 -1.1570001 4395265
0.074082755 -0.051968567 -1.161 5182721
0.074082762 -0.047545709 -1.161 5116929
0.072608471 -0.04164857 -1.161 4918020
0.071871325 -0.038699999 -1.161 4656911
0.07187131 0.27974573 -1.161 8668937
0.077768467 -0.052705713 -1.161 4920066
0.076294184 -0.047545712 -1.161 5051649
0.082928471 -0.056391425 -1.161 4853761
0.081454188 -0.053442854 -1.161 4657153
0.089562751 -0.071871422 -1.161 4265729
0.088678189 -0.067890853 -1.1610001 4198914
0.08845704 -0.061919995 -1.161 4460564
0.086798459 -0.058049999 -1.161 4722699
0.091774181 -0.069659993 -1.161 4133889
0.074337997 -0.043271426 -1.1650001 4918273
0.073683396 -0.037395872 -1.1663334 4394755
0.072696403 -0.032266982 -1.1683334 4131841
0.073108792 -0.010762219 -1.169 3541761
0.074593231 -0.0066799973 -1.169 3736577
0.074337982 0.27738094 -1.1650001 8012820
0.073768459 0.28283399 -1.1676668 8599819
0.072366551 0.28724 -1.1690001 9590317
0.072366551 0.29058 -1.169 9262684
0.078776091 -0.047709521 -1.1650002 4986370
0.077666566 -0.042161904 -1.1650001 4852997
0.077799901 -0.037786663 -1.1670001 4459779
0.076819882 0.27388 -1.169 8077084
0.076819882 0.27721998 -1.169 7750705
0.076819882 0.28278667 -1.169 8009242
0.077562109 0.28761113 -1.169 11370324
0.083214186 -0.052147619 -1.1650001 4786433
0.082152277 -0.047735553 -1.1656668 4918785
0.081922755 -0.042628255 -1.1676668 4852739
0.081273235 -0.038966663 -1.169 4655361
0.082247503 0.2634086 -1.1670001 7288094
0.08099512 0.26517621 -1.1650001 7354896
0.087652281 -0.056585714 -1.1650001 4591879
0.086439706 -0.052661523 -1.1666001 4723202
0.085726552 0.25384003 -1.169 6237713
0.074848473 -0.030162856 -1.1730001 4066049
0.074848473 -0.012288569 -1.1730001 3737601
0.077082753 -0.033514284 -1.1730001 4001028
0.078199893 -0.011171426 -1.1730001 3606529
0.078199901 -0.0067028538 -1.1730001 3737601
0.079317026 0.2737 -1.1730001 8011040
0.079317026 0.27593431 -1.1730001 8208179
0.077082738 0.2804029 -1.1730001 7419166
0.083785616 -0.041334286 -1.1730001 4785409
0.082668468 -0.037982855 -1.1730001 4524290
0.083785601 0.2625286 -1.1730001 7155480
0.088254191 -0.050271429 -1.1730001 4854795
0.087137051 -0.046919998 -1.1730001 4984588
0.086019903 -0.043568574 -1.1730001 4918017
0.088254184 0.25359145 -1.1730001 6106648
0.090488471 -0.054740001 -1.1730001 4395778
0.072861806 -0.028023807 -1.177 4392705
0.072861806 -0.022419045 -1.177 3802370
0.072861806 -0.017935235 -1.177 3868427
0.072861806 -0.014572378 -1.177 3934727
0.079027034 -0.03194714 -1.177 4000517
0.077345617 -0.028023809 -1.177 3999745
0.07678514 -0.021858569 -1.177 3671300
0.077345617 -0.017935235 -1.177 3934223
0.077345617 -0.014572377 -1.177 3868938
0.077345617 -0.0022419014 -1.177 3868420
0.077345617 0.014572385 -1.177 4196866
0.079587512 0.077345721 -1.177 4196866
0.079587512 0.084071428 -1.177 4065538
0.079587504 0.087434292 -1.177 4262151
0.079587504 0.091918096 -1.177 4263442
0.079587512 0.097522855 -1.177 4327685
0.079587497 0.27239144 -1.177 7814162
0.079587497 0.27911714 -1.177 8143687
0.079587497 0.28248 -1.177 8467491
0.079587497 0.28696382 -1.177 10389081
0.084071323 -0.036991429 -1.177 4393217
0.082950376 -0.032507617 -1.177 4196098
0.081829421 -0.028023807 -1.177 4195849
0.081829421 -0.017935235 -1.177 3606287
0.082726181 -0.011882092 -1.177 3606274
0.081829421 -0.0067257108 -1.177 3673345
0.081829421 0.079587616 -1.177 4459014
0.081829421 0.082950473 -1.177 4262149
0.081829414 0.087434292 -1.177 4393476
0.081829414 0.090797149 -1.177 4590349
0.084071316 0.1670219 -1.177 4460545
0.084071308 0.26118189 -1.177 6958610
0.084071308 0.26790762 -1.177 7288080
0.081829406 0.27127048 -1.177 7683082
0.081829406 0.28808478 -1.177 11568234
0.087807842 -0.042222537 -1.177 4787969
0.087060541 -0.03848603 -1.177 4459010
0.086313225 0.1670219 -1.177 4263169
0.087807827 0.25819272 -1.177 6434070
0.086313218 0.26230285 -1.177 6827550
0.086313218 0.26566571 -1.177 7090466
0.090797044 -0.047079999 -1.177 4985096
0.090797037 0.25445619 -1.177 6107157
0.073109426 -0.025869522 -1.1810001 4064257
0.077608474 -0.025869522 -1.1810001 3671553
0.078733236 -0.023619998 -1.1810001 3343364
0.079857998 -0.0022495205 -1.1810001 3738119
0.078733236 0.0022495275 -1.1810001 3999243
0.078733236 0.0067485753 -1.1810001 3999750
0.078358315 0.011622544 -1.1810002 4065546
0.079857998 0.017996196 -1.1810001 4327182
0.078733236 0.034867626 -1.1810001 4523265
0.078733236 0.038241912 -1.1810001 4524289
0.078733236 0.04274096 -1.1810001 4524297
0.077608474 0.047240008 -1.1810002 4787986
0.079857998 0.050614294 -1.1810001 4525841
0.079857998 0.061861917 -1.1810001 4589315
0.079857998 0.071984768 -1.1810001 4132097
0.079857998 0.075359054 -1.1810001 4327937
0.07985799 0.1034781 -1.1810001 4524037
0.07985799 0.10797715 -1.1810001 4197403
0.083607204 -0.026619364 -1.1810001 3998485
0.083232284 -0.022495236 -1.1810001 3605000
0.084357046 -0.017996188 -1.1810001 3605505
0.084357046 -0.014621902 -1.1810001 3737857
0.084357046 -0.0067485683 -1.1810001 3868162
0.082107522 -0.0022495205 -1.1810001 3607302
0.082107522 0.0022495275 -1.1810001 3803145
0.082107522 0.012372386 -1.1810001 4000266
0.082107522 0.016871434 -1.1810001 4196359
0.083232284 0.034867626 -1.1810001 4129281
0.083232284 0.038241912 -1.1810001 4523009
0.083232284 0.041616198 -1.1810001 4457729
0.082107522 0.061861917 -1.1810001 4457986
0.082107522 0.071984768 -1.1810001 4525064
0.083232284 0.077608578 -1.1810001 4589832
0.084357046 0.083232388 -1.1810001 4458503
0.084357038 0.087731436 -1.1810001 4327426
0.083607197 0.092605405 -1.1810001 4721157
0.083232276 0.096729532 -1.1810001 4459011
0.083232276 0.10235335 -1.1810002 4458499
0.083232276 0.10797715 -1.1810001 4197383
0.083232276 0.1124762 -1.1810001 4721155
0.083232276 0.11697525 -1.1810001 4589827
0.083607197 0.12259907 -1.1810001 4852745
0.083232276 0.12822288 -1.1810001 4131585
0.083232276 0.13272193 -1.1810001 4261891
0.083232276 0.13722098 -1.1810001 4130312
0.083607197 0.14134511 -1.1810001 4196354
0.084357038 0.16309048 -1.1810001 4392458
0.084357038 0.16758955 -1.1810001 4460291
0.084357038 0.17208859 -1.1810001 4657665
0.084357031 0.27219242 -1.1810001 7420426
0.083232269 0.27669144 -1.1810001 8139297
0.083232269 0.28231528 -1.1810002 9658686
0.083232269 0.2868143 -1.1810001 11765608
0.088856094 -0.037117142 -1.1810001 4523778
0.087731332 -0.032618094 -1.1810002 4523521
0.087356418 -0.027369205 -1.1810001 4260872
0.08660657 -0.022495236 -1.1810001 3604741
0.08660657 -0.01912095 -1.1810001 3539713
0.08660657 -0.010122854 -1.1810001 4457217
0.08660657 0.038241912 -1.1810001 4654608
0.086606562 0.10235335 -1.1810001 4460805
0.086606562 0.10797716 -1.1810001 4786945
0.086606562 0.11135145 -1.1810001 5179909
0.086606562 0.14059526 -1.1810001 4719873
0.086606562 0.16309048 -1.1810001 4195590
0.087356411 0.1668397 -1.1810001 4262658
0.086606562 0.17321336 -1.1810001 4591106
0.088856079 0.26319432 -1.1810001 6893607
0.086606555 0.26881811 -1.1810001 7222546
0.086606555 0.27781621 -1.1810001 8405794
0.086606555 0.28456479 -1.1810001 11895150
0.086606555 0.2868143 -1.1810001 11960424
0.091105618 -0.038241904 -1.1810001 4722449
0.07787133 0.032728575 -1.1850001 4195585
0.077118948 0.051538106 -1.1850002 4591109
0.07787133 0.057557151 -1.1850002 4459279
0.08464276 -0.0022571392 -1.1850001 3736325
0.08464276 0.0022571466 -1.1850001 3999236
0.083514184 0.0067714322 -1.1850001 3934724
0.084642768 0.012414291 -1.1850002 4000007
0.083890378 0.018433338 -1.1850002 4196101
0.082385615 0.022571433 -1.1850001 4588804
0.082385615 0.027085718 -1.1850001 4392450
0.082385615 0.031600002 -1.1850001 4457985
0.083514184 0.044014294 -1.1850001 4261383
0.083514184 0.047400009 -1.1850001 4525325
0.082837045 0.052140009 -1.1850001 4328456
0.082385622 0.057557151 -1.1850001 4392962
0.082949899 0.063764289 -1.1850001 4457985
0.082385615 0.067714289 -1.1850001 4327681
0.08464276 0.072228573 -1.1850001 4523792
0.08464276 0.075614288 -1.1850001 4719631
0.080128461 0.11172857 -1.1850001 4591379
0.084642753 0.12075715 -1.1850001 4917506
0.082385607 0.14332858 -1.1850001 4262405
0.083514176 0.14671429 -1.1850001 3934211
0.083514184 0.15235715 -1.1850001 4260614
0.083890371 0.15762383 -1.1850002 4325645
0.084642753 0.16138572 -1.1850001 4391693
0.089157045 -0.025957139 -1.1850001 4129793
0.089157045 -0.022571426 -1.1850001 3801345
0.08840467 -0.01768095 -1.1850002 3671041
0.088374563 -0.012883997 -1.1866001 3867905
0.088028468 -0.0067714248 -1.1850001 3933441
0.088178948 -0.0022609483 -1.187 3934210
0.088178948 0.0022609564 -1.187 4130305
0.088325612 0.0067942888 -1.189 4065545
0.088028468 0.012414291 -1.1850001 4065809
0.088103712 0.018073337 -1.186 3934209
0.088028476 0.022571435 -1.1850001 4261121
0.088028476 0.027085718 -1.1850001 4588823
0.088028476 0.032728575 -1.1850001 4261387
0.089157045 0.038371433 -1.1850001 4523807
0.088028476 0.042885721 -1.1850001 4326913
0.088028476 0.047400009 -1.1850001 4459274
0.08817894 0.052001912 -1.187 4328985
0.08812879 0.057620645 -1.1863334 4263169
0.08817894 0.063306674 -1.187 4393217
0.088103704 0.067770481 -1.186 4262145
0.088028468 0.072228581 -1.1850001 4458246
0.088103704 0.076806679 -1.186 4588805
0.088028468 0.082385726 -1.1850001 4459010
0.088028468 0.088028587 -1.1850001 4065793
0.088028468 0.092542872 -1.1850001 4590082
0.088028461 0.097057156 -1.1850001 4590085
0.08859276 0.10270001 -1.1850001 4263687
0.089157037 0.10834286 -1.1850001 4655617
0.088404663 0.11323335 -1.1850002 4721163
0.088028468 0.11737144 -1.1850001 4262661
0.088028468 0.12188572 -1.1850001 4655873
0.088078626 0.12759905 -1.1856668 4459777
0.088028468 0.13317142 -1.1850001 4327169
0.088028461 0.13768572 -1.1850001 4785410
0.088404663 0.1425762 -1.1850002 4393217
0.088028468 0.14671429 -1.1850001 4327681
0.088028461 0.15235715 -1.1850001 4195603
0.088028468 0.15800001 -1.1850001 4129299
0.088404663 0.1621381 -1.1850002 4064519
0.089157037 0.16815715 -1.1850001 4131841
0.089157037 0.17267144 -1.1850002 4328193
0.089457981 0.17778382 -1.189 4590085
0.089457981 0.18004857 -1.189 4656135
0.08915703 0.26747143 -1.1850001 6893862
0.087752581 0.27228925 -1.1863334 7026699
0.088605285 0.27787718 -1.1876668 9000215
0.088103697 0.28238001 -1.186 11107662
0.091722749 -0.018118091 -1.189 3736833
0.091722757 -0.012456188 -1.189 3540995
0.091722749 -0.0067942813 -1.189 3738369
0.091722749 -0.001132377 -1.189 4197633
0.091722749 0.0033971467 -1.189 4131841
0.091722749 0.0079266699 -1.189 4197131
0.091722757 0.012456195 -1.189 4197387
0.091722757 0.037368577 -1.189 4392979
0.091722749 0.041898098 -1.189 4458243
0.091722749 0.047560003 -1.189 4786697
0.091722749 0.057751432 -1.189 4328961
0.091722749 0.060016196 -1.189 4262913
0.091722749 0.067942865 -1.189 3868930
0.091722749 0.072472386 -1.189 4392451
0.091722734 0.28196287 -1.189 11635545
0.089758933 0.27382192 -1.1930001 7419139
0.089758933 0.27609429 -1.1930001 8141314
0.07339415 0.46998098 -1.3520001 65793
0.072106533 0.47255623 -1.3520001 65793
0.072106533 0.47513145 -1.3520001 65793
0.077257 0.46998098 -1.3520001 65793
0.077257 0.47255623 -1.3520001 65793
0.075969383 0.47513145 -1.3520001 65793
0.07199543 0.43154225 -1.3580002 65793
0.072426535 0.45396 -1.358 131329
0.072426535 0.45784003 -1.358 131329
0.072857648 0.4625822 -1.3580002 65793
0.072426535 0.46818668 -1.358 65793
0.072426535 0.47982669 -1.358 65793
0.076306529 0.45654669 -1.358 131329
0.077599861 0.46171999 -1.358 65793
0.077168755 0.4686178 -1.3580002 131329
0.077599861 0.47853336 -1.358 65794
0.082773186 0.47336 -1.358 65793
0.081479855 0.47724003 -1.358 65793
0.073991291 0.42966953 -1.363 131329
0.073991291 0.4348619 -1.363 131329
0.073991291 0.43745813 -1.363 131329
0.073991291 0.4413524 -1.363 131329
0.072693191 0.45173711 -1.363 131329
0.073991291 0.48418954 -1.363 65795
0.072693191 0.48808381 -1.363 131330
0.076587483 0.39202476 -1.363 131329
0.077452883 0.39764985 -1.3630002 65793
0.077885576 0.42966953 -1.363 131329
0.077885576 0.43356383 -1.363 65793
0.077885576 0.43745813 -1.363 65793
0.076587476 0.4400543 -1.363 131329
0.077885576 0.46082383 -1.363 131329
0.078318276 0.4668816 -1.3630002 65793
0.077885576 0.48289144 -1.363 65795
0.076587476 0.48678571 -1.363 65797
0.081779867 0.39851525 -1.363 65793
0.08177986 0.42966953 -1.363 131329
0.08177986 0.4322657 -1.363 65793
0.08307796 0.46731427 -1.363 65793
0.08307796 0.47120857 -1.363 196865
0.07295987 0.38825142 -1.368 131329
0.07295987 0.39346284 -1.368 65793
0.07295987 0.39867431 -1.368 65793
0.07295987 0.40258285 -1.368 131329
0.07295987 0.4064914 -1.368 65793
0.072525591 0.41126859 -1.368 65793
0.072959863 0.42733711 -1.368 131329
0.074262716 0.44818285 -1.368 131329
0.07339415 0.49291429 -1.368 131330
0.072525583 0.49725717 -1.368 65793
0.072525583 0.50333714 -1.368 327937
0.072959863 0.50811428 -1.368 327937
0.074262716 0.51332569 -1.368 4529694
0.072959863 0.51853716 -1.368 9406062
0.077737018 0.3886857 -1.368 131329
0.079474151 0.39346284 -1.368 131331
0.079474151 0.39737144 -1.368 131329
0.078171298 0.40258285 -1.368 65793
0.078171298 0.4064914 -1.368 131329
0.07817129 0.42864001 -1.368 131329
0.07817129 0.44297141 -1.368 65793
0.079474144 0.48726857 -1.368 65795
0.076868437 0.49248001 -1.368 65796
0.076868437 0.49638858 -1.368 131329
0.076868437 0.50811428 -1.368 1966337
0.077737011 0.51375997 -1.368 8744242
0.076868437 0.51723427 -1.368 10192758
0.082079872 0.38955429 -1.368 65796
0.083382726 0.39346284 -1.368 65796
0.083382726 0.39737144 -1.368 65793
0.083382726 0.40258285 -1.368 65793
0.083382726 0.40649143 -1.368 131329
0.083382718 0.42733711 -1.368 131329
0.084685571 0.43254858 -1.368 131329
0.083382718 0.43776 -1.368 65793
0.083382718 0.44166857 -1.368 65793
0.083382718 0.48336002 -1.368 65793
0.082948439 0.48683429 -1.368 65793
0.088594154 0.40258285 -1.368 65793
0.088159859 0.42777142 -1.368 65793
0.088594146 0.43254858 -1.368 65793
0.088594146 0.43776 -1.368 65793
0.071971297 0.35985714 -1.3740001 196865
0.071971297 0.36247429 -1.3740001 131329
0.073279865 0.3664 -1.3740001 131329
0.071971297 0.3716343 -1.3740001 131329
0.072843686 0.37730479 -1.3740001 196865
0.073279865 0.38210288 -1.3740001 65793
0.073279873 0.38602859 -1.3740001 131329
0.07458844 0.41481715 -1.3740001 131329
0.07458844 0.4174343 -1.3740001 131329
0.07458844 0.42136002 -1.3740001 131329
0.073279873 0.42528573 -1.3740001 131329
0.074588433 0.50249147 -1.3740001 196865
0.078950353 0.38690099 -1.3740001 131329
0.078514159 0.41350859 -1.3740001 196865
0.078514159 0.4174343 -1.3740001 393473
0.078514159 0.42136002 -1.3740001 131329
0.078514151 0.42790288 -1.3740001 131329
0.078514151 0.44753146 -1.3740001 65793
0.077205576 0.45145717 -1.3740001 131329
0.079822719 0.49333146 -1.3740001 65795
0.079822719 0.49725717 -1.3740001 65793
0.078514151 0.50249147 -1.3740001 131329
0.078950346 0.50728953 -1.3740001 983299
0.079822719 0.51296008 -1.3740001 6444854
0.08243987 0.38864574 -1.3740001 65793
0.08243987 0.41350859 -1.3740001 131329
0.08243987 0.4174343 -1.3740001 327937
0.08243987 0.42136002 -1.3740001 131329
0.08243987 0.42528573 -1.3740001 65793
0.082439862 0.44622287 -1.3740001 65793
0.082439862 0.49333146 -1.3740001 131329
0.082439862 0.49725717 -1.3740001 196865
0.082439862 0.50249147 -1.3740001 852225
0.082439862 0.50772572 -1.3740001 4333063
0.082439862 0.51165146 -1.3740001 8355145
0.085057013 0.38864574 -1.3740001 65793
0.085057013 0.39126286 -1.3740001 65794
0.087674156 0.40827429 -1.3740001 131329
0.086365588 0.41350859 -1.3740001 131329
0.086365581 0.4174343 -1.3740001 131329
0.086365588 0.42136002 -1.3740001 65793
0.086365581 0.42528573 -1.3740001 65793
0.087674148 0.44360572 -1.3740001 65793
0.086365581 0.44753146 -1.3740001 65793
0.085057005 0.49725717 -1.3740001 262401
0.085057005 0.50249147 -1.3740001 1573145
0.091599874 0.40827429 -1.3740001 65793
0.091599874 0.41350859 -1.3740001 131329
0.091599867 0.4174343 -1.3740001 262401
0.091599874 0.42136002 -1.3740001 65793
0.091599867 0.42659432 -1.3740001 65793
0.091599859 0.44360572 -1.3740001 65793
0.090291291 0.44753146 -1.3740001 65793
0.074859872 0.35854 -1.3790001 196865
0.074859872 0.36248001 -1.3790001 131329
0.074859872 0.37298667 -1.3790001 196865
0.074859872 0.37692666 -1.3790001 459009
0.077486537 0.35854 -1.3790001 131329
0.077486537 0.36116666 -1.3790001 131585
0.077486537 0.36773336 -1.3790001 65793
0.077486537 0.37823999 -1.3790001 196865
0.077486537 0.38349336 -1.3790001 131329
0.07748653 0.42683333 -1.3790001 65793
0.080113202 0.37955335 -1.3790001 131329
0.080113202 0.38349336 -1.3790001 131329
0.082739875 0.38743335 -1.3790001 65793
0.080113195 0.42683333 -1.3790001 65793
0.081426531 0.4517867 -1.3790001 131329
0.085366532 0.38743335 -1.3790001 65794
0.087993205 0.39137334 -1.3790001 65793
0.085366525 0.45310003 -1.3790001 131329
0.09061987 0.39268667 -1.3790001 131329
0.077823676 0.3653762 -1.3850001 65793
0.077823676 0.37329048 -1.3850001 131329
0.077823676 0.37592861 -1.3850001 196865
0.083099872 0.38384289 -1.3850001 131329
0.083099872 0.38648096 -1.3850001 65793
0.085737966 0.38384289 -1.3850001 131330
0.08837606 0.38911909 -1.3850001 65795
0.081634797 0.36846036 -1.3900001 65793
0.081634797 0.37287307 -1.3900001 65793
0.08163479 0.37905082 -1.3900001 131329
0.08339987 0.38258097 -1.3900001 196865
0.087812573 0.36757779 -1.3900001 262401
0.088695109 0.3719905 -1.3900001 131331
0.086047493 0.37993336 -1.3900001 459009
0.086047493 0.38258097 -1.3900001 262401
0.087812573 0.38699365 -1.3900001 65796
0.091342725 0.36801907 -1.3900001 590081
0.091342725 0.3719905 -1.3900001 131330
0.091342725 0.38655239 -1.3900001 65795
0.083759867 0.36827812 -1.396 65793
0.083759867 0.37758476 -1.396 131329
0.086418919 0.37226665 -1.396 131330
0.087305278 0.37714157 -1.3960001 131329
0.089077964 0.38290286 -1.396 262401
