# .PCD v0.7 - Point Cloud Data file format
VERSION 0.7
FIELDS x y z rgba
SIZE 4 4 4 4
TYPE F F F U
COUNT 1 1 1 1
WIDTH 1160
HEIGHT 1
VIEWPOINT 0 0 0 1 0 0 0
POINTS 1160
DATA ascii
-0.13817151 -0.65188575 -1.24 2889252
-0.13817151 -0.64125717 -1.24 3022624
-0.13699056 -0.63653332 -1.24 3349792
-0.13817151 -0.6164571 -1.24 3547465
-0.13699056 -0.61173332 -1.24 3809582
-0.1365969 -0.6066159 -1.24 4203311
-0.13699056 -0.60228574 -1.24 4138284
-0.13659692 -0.59716827 -1.24 3940644
-0.13699056 -0.59283805 -1.24 3743011
-0.1365969 -0.58850801 -1.24 4464186
-0.13266039 -0.70187938 -1.24 2822176
-0.13344769 -0.69676191 -1.24 2887722
-0.13344769 -0.69203812 -1.24 3019555
-0.13344769 -0.68849522 -1.24 3347473
-0.13344769 -0.60700953 -1.24 3809841
-0.13344769 -0.60228574 -1.24 3809836
-0.13344769 -0.5975619 -1.24 3743510
-0.13344769 -0.5916571 -1.24 3744020
-0.13187309 -0.58850801 -1.24 4006697
-0.13108578 -0.58339047 -1.24 3875374
-0.13108578 -0.57984763 -1.24 3875883
-0.12754293 -0.57630473 -1.24 3811367
-0.12636198 -0.5704 -1.24 4071968
-0.12636198 -0.56685716 -1.24 4071471
-0.12636198 -0.56213331 -1.24 4072742
-0.12636198 -0.55740952 -1.24 4335378
-0.12714928 -0.55307937 -1.24 4333832
-0.12636198 -0.54796189 -1.24 4071456
-0.12400009 -0.56567621 -1.24 4071221
-0.12321278 -0.56173968 -1.24 4137513
-0.12281913 -0.55740952 -1.24 4202259
-0.12400009 -0.55268574 -1.24 4266510
-0.12400009 -0.54796189 -1.24 4137501
-0.12281913 -0.5432381 -1.24 4726824
-0.12163819 -0.5396952 -1.24 4268840
-0.11927628 -0.54205716 -1.24 4463661
-0.11770168 -0.53890795 -1.24 4203051
-0.11770168 -0.53339684 -1.24 4334376
-0.11455247 -0.53733331 -1.24 4137767
-0.11455247 -0.53260958 -1.24 4267279
-0.11219057 -0.52198094 -1.24 4336677
-0.11219057 -0.51725715 -1.24 4532514
-0.11219057 -0.51371431 -1.24 4728103
-0.10510485 -0.52079999 -1.24 4138784
-0.10589215 -0.51765084 -1.24 4270363
-0.10699438 -0.51276952 -1.24 4663091
-0.10274294 -0.51725715 -1.24 4136999
-0.10156199 -0.51253331 -1.24 3810620
-0.10156199 -0.50899047 -1.24 4008504
-0.095657237 -0.51607621 -1.24 4003892
-0.096838184 -0.51253331 -1.24 4137276
-0.096838184 -0.50780952 -1.24 4137783
-0.096838184 -0.50308573 -1.24 4269360
-0.09644454 -0.49875554 -1.24 4204588
-0.09172073 -0.51686352 -1.24 3940658
-0.092508033 -0.512927 -1.24 4006706
-0.092114381 -0.50780952 -1.24 4202790
-0.093295328 -0.50308573 -1.24 4334623
-0.093295328 -0.49954286 -1.24 4401467
-0.092114374 -0.49481905 -1.24 4400685
-0.087390572 -0.49127617 -1.24 4203324
-0.086209618 -0.48773333 -1.24 4008513
-0.082666755 -0.49245715 -1.24 3745077
-0.0814858 -0.48773333 -1.24 3877931
-0.076761991 -0.50426662 -1.24 3745567
-0.076761991 -0.49836189 -1.24 3941919
-0.077942938 -0.49245715 -1.24 3483929
-0.079123899 -0.48773333 -1.24 3812125
-0.072038181 -0.50662857 -1.24 3874359
-0.072825484 -0.50347936 -1.24 3941683
-0.073219135 -0.49836189 -1.24 4072765
-0.072982945 -0.49245712 -1.24 4269593
-0.073219135 -0.48773333 -1.24 3941645
-0.068495326 -0.50780952 -1.24 3677739
-0.068495326 -0.50308573 -1.24 3743782
-0.068495326 -0.49836189 -1.24 3809846
-0.068495326 -0.49245715 -1.24 4267813
-0.068101674 -0.48694605 -1.24 3745575
-0.062590569 -0.50780952 -1.24 3612189
-0.063771516 -0.50308573 -1.24 3480342
-0.062590569 -0.49836192 -1.24 3415350
-0.062590562 -0.49245712 -1.2399999 3744295
-0.063771516 -0.48655239 -1.24 3744796
-0.063771516 -0.48300952 -1.24 3746067
-0.055504847 -0.51725715 -1.24 3613235
-0.056685798 -0.51253331 -1.24 3875121
-0.056685802 -0.50780952 -1.24 3875374
-0.056685802 -0.50308573 -1.24 3285038
-0.056685802 -0.49954286 -1.24 3743556
-0.057276275 -0.49245712 -1.24 3743794
-0.050781038 -0.52788574 -1.24 3678244
-0.051568341 -0.52158731 -1.24 4070456
-0.052355643 -0.51686352 -1.24 3481656
-0.053142942 -0.51371431 -1.24 3678783
-0.053142942 -0.50899047 -1.24 4007993
-0.053142942 -0.50308573 -1.24 3415843
-0.047238182 -0.52788574 -1.24 3611931
-0.047238182 -0.52198094 -1.24 3874604
-0.048419133 -0.51607621 -1.24 3546934
-0.048419133 -0.50426662 -1.24 3678465
-0.041333418 -0.53733331 -1.24 1968927
-0.041333418 -0.53260952 -1.24 2168596
-0.042514369 -0.52670479 -1.24 3480851
-0.04290802 -0.52237463 -1.24 3940365
-0.036609609 -0.55150479 -1.24 3348506
-0.036609609 -0.54796189 -1.24 2822690
-0.037790563 -0.5432381 -1.24 2888733
-0.037790563 -0.53851426 -1.24 2560281
-0.037200086 -0.53260952 -1.24 2627594
-0.037790563 -0.52670479 -1.24 3415821
-0.037396912 -0.52237463 -1.24 3678995
-0.034247696 -0.70030475 -1.24 1770770
-0.031885792 -0.69676191 -1.24 1770513
-0.032673094 -0.69243181 -1.24 1836307
-0.031885792 -0.6719619 -1.24 1707535
-0.031885795 -0.63653332 -1.24 1508618
-0.031885795 -0.63417143 -1.24 1444361
-0.031885795 -0.58220953 -1.24 2297111
-0.031885795 -0.57630473 -1.24 2888226
-0.031885795 -0.57158095 -1.24 3020330
-0.031885795 -0.55622852 -1.24 2432812
-0.033066753 -0.55268574 -1.24 2955295
-0.034247704 -0.54796189 -1.24 2887205
-0.034247704 -0.53260958 -1.24 2364935
-0.034247704 -0.52670479 -1.24 3416090
-0.034247704 -0.52198094 -1.24 3941421
-0.029523887 -0.68731427 -1.24 2229522
-0.029523887 -0.68259048 -1.24 2033160
-0.029523887 -0.6778667 -1.24 1838082
-0.029523887 -0.6743238 -1.24 1641731
-0.029523887 -0.668419 -1.24 1641247
-0.029523889 -0.66251433 -1.24 1902850
-0.028736588 -0.627873 -1.24 1574661
-0.027949287 -0.62314928 -1.24 1639684
-0.027161986 -0.62 -1.24 1377283
-0.027161987 -0.61173332 -1.24 1772564
-0.027161987 -0.60228574 -1.24 2495246
-0.027161987 -0.5975619 -1.24 2494491
-0.027161987 -0.59401906 -1.24 2494725
-0.02834294 -0.58339047 -1.24 1640461
-0.028342938 -0.57748568 -1.24 2623529
-0.02834294 -0.57158095 -1.24 3085362
-0.02834294 -0.56685716 -1.24 3019815
-0.028342942 -0.56213331 -1.24 2756123
-0.028736591 -0.55780315 -1.24 2364969
-0.029523892 -0.55386668 -1.24 2694444
-0.024800083 -0.6164571 -1.24 2097924
-0.024800083 -0.59638095 -1.24 2493968
-0.023619132 -0.57512379 -1.24 2820654
-0.024800085 -0.5704 -1.24 3020842
0.024012607 -0.35231751 -1.24 3349807
0.024799908 -0.34601906 -1.24 4599346
0.023618955 -0.34247619 -1.24 5190712
0.023225304 -0.33814606 -1.24 5717577
0.028578954 -0.36208004 -1.24 3154717
0.027161812 -0.35664761 -1.24 3415842
0.027161812 -0.35192382 -1.24 3611177
0.027161812 -0.34719998 -1.24 4467763
0.028342763 -0.34247619 -1.24 5586497
0.027949113 -0.33814606 -1.24 5981008
0.027161812 -0.33420953 -1.24 6244193
0.033460226 -0.36806351 -1.24 3876364
0.03188562 -0.3649143 -1.24 4138753
0.03188562 -0.34601906 -1.24 5523750
0.033460226 -0.34208256 -1.24 6245698
0.033066574 -0.3377524 -1.24 6310223
0.038971338 -0.37908572 -1.24 3480602
0.038184036 -0.37278733 -1.24 3940110
0.037396733 -0.3688508 -1.24 4138012
0.038184036 -0.34208256 -1.24 6899025
0.03660943 -0.33893335 -1.24 6637931
0.043695148 -0.40506667 -1.24 3086853
0.042514198 -0.40152383 -1.24 3217922
0.042907849 -0.39640635 -1.24 3611913
0.043695148 -0.39207619 -1.24 3480845
0.043695148 -0.38735238 -1.24 3284496
0.042120542 -0.38302225 -1.24 3284741
0.042120542 -0.37751111 -1.24 3677962
0.042120542 -0.37357461 -1.24 4005894
0.04133324 -0.36963809 -1.24 4334093
0.043695144 -0.34601906 -1.24 6243897
0.042907845 -0.34208256 -1.24 6571847
0.04133324 -0.33893335 -1.24 6638156
0.047001816 -0.4069562 -1.24 3479817
0.047238003 -0.40152383 -1.24 3938822
0.047238007 -0.39679998 -1.24 3546649
0.047238007 -0.39207619 -1.24 3349014
0.046057053 -0.38735238 -1.24 3152920
0.047631655 -0.34680638 -1.24 5915448
0.047238003 -0.34365714 -1.24 6243143
0.053142767 -0.41923809 -1.24 3085095
0.053142767 -0.41215238 -1.24 3086103
0.050780863 -0.40742859 -1.24 3413273
0.050780863 -0.40034288 -1.24 3675914
0.050780863 -0.39089525 -1.24 3217685
0.050780863 -0.38617143 -1.24 3611674
0.050780859 -0.35546666 -1.24 4598566
0.053142764 -0.35310477 -1.24 4934165
0.051568162 -0.34680635 -1.24 5914688
0.051961813 -0.34365714 -1.24 6244167
0.057866577 -0.42159998 -1.24 2954274
0.057079278 -0.4184508 -1.24 3348260
0.057079278 -0.41293967 -1.24 3481114
0.055504672 -0.40979046 -1.24 3678236
0.055504669 -0.35546666 -1.24 4401437
0.057079274 -0.35231751 -1.24 4928799
0.056685623 -0.34719998 -1.24 5652287
0.05786657 -0.28697142 -1.24 3874584
0.05786657 -0.28460953 -1.24 4530978
0.062590383 -0.42278093 -1.24 2888210
0.062118012 -0.41782093 -1.24 3217162
0.062118005 -0.41356951 -1.24 3283736
0.061803088 -0.40821585 -1.24 3480620
0.062590383 -0.40152383 -1.24 3020547
0.064952284 -0.38380951 -1.24 4205854
0.064952284 -0.37318096 -1.24 3416094
0.064952284 -0.36963809 -1.24 3023889
0.064952284 -0.36255237 -1.24 3481625
0.062590383 -0.34601906 -1.24 5453636
0.062590383 -0.34365714 -1.24 5587272
0.061409429 -0.28697142 -1.24 4400912
0.062590383 -0.28401905 -1.24 5715505
0.068495139 -0.42278093 -1.24 3019018
0.068495139 -0.41805714 -1.24 3018761
0.069676094 -0.41333333 -1.24 3215880
0.069676094 -0.40742859 -1.24 3217679
0.068888791 -0.40191746 -1.24 3020289
0.069676094 -0.39561903 -1.24 3151369
0.069676094 -0.38617143 -1.24 4401713
0.069676094 -0.38262856 -1.24 4663594
0.069676094 -0.3767238 -1.24 4268545
0.068495139 -0.37318096 -1.24 3610902
0.068495139 -0.36845714 -1.24 3153160
0.06873133 -0.3630248 -1.24 3415825
0.069676094 -0.35782856 -1.24 4007984
0.068888791 -0.35153016 -1.24 4993340
0.068495139 -0.34719998 -1.24 5256774
0.073218949 -0.42159998 -1.24 3216137
0.073218949 -0.41805714 -1.24 3281161
0.073218949 -0.41333333 -1.24 3281418
0.073218957 -0.40742859 -1.24 3281939
0.072825298 -0.4011302 -1.24 3281927
0.073218949 -0.39679998 -1.24 3414033
0.073218949 -0.39207619 -1.24 3876636
0.073218949 -0.38735238 -1.24 4467505
0.072825298 -0.3822349 -1.24 4992307
0.072825298 -0.37829846 -1.24 4860966
0.072037995 -0.36727619 -1.24 3414018
0.072628468 -0.36196193 -1.24 3283736
0.073612608 -0.3570413 -1.24 3743791
0.073218949 -0.35192382 -1.24 4401974
0.073218949 -0.34838092 -1.24 4861766
0.076761805 -0.4168762 -1.24 3545868
0.077549107 -0.41372699 -1.24 3349004
0.079123713 -0.40034288 -1.24 3284499
0.076761805 -0.39798096 -1.24 3480848
0.077549107 -0.39246985 -1.24 4072730
0.076761805 -0.38853332 -1.24 4468775
0.076761805 -0.36019048 -1.24 3150873
0.076761805 -0.35546666 -1.24 3808803
0.076761805 -0.35192382 -1.24 3808809
0.076761805 -0.34838092 -1.24 4335422
0.081485614 -0.41451427 -1.24 3480335
0.081485614 -0.40034288 -1.24 3154445
0.086996749 -0.42711115 -1.24 4007703
0.087390386 -0.42396191 -1.24 3809309
0.086209431 -0.40506667 -1.24 4068896
0.086209431 -0.40034288 -1.24 4071178
0.086209431 -0.39561903 -1.24 3546370
0.086209431 -0.39325714 -1.24 3481097
0.090933248 -0.42632383 -1.24 3680016
0.092114188 -0.42396191 -1.24 3746062
-0.1558277 -0.69111341 -1.2490001 3874088
-0.1558277 -0.68754482 -1.2490001 3808545
-0.15225913 -0.69587147 -1.2490001 3348512
-0.15225913 -0.69111341 -1.2490001 3283238
-0.15344864 -0.68754482 -1.2490001 3480089
-0.15265565 -0.68318319 -1.2490001 3546660
-0.15082769 -0.67931616 -1.247 3415326
-0.15225913 -0.66018575 -1.2490001 3810581
-0.15225913 -0.65661716 -1.2490001 3941659
-0.15186262 -0.65225565 -1.2490001 4071716
-0.15213817 -0.64658189 -1.248 3942187
-0.15225913 -0.6435324 -1.2490001 4074279
-0.15137626 -0.6383096 -1.2450001 4140318
-0.15074706 -0.63266003 -1.2463334 4335380
-0.1473839 -0.70601046 -1.248 3020588
-0.14750104 -0.70181906 -1.2490001 3021597
-0.14750104 -0.69706094 -1.2490001 3021072
-0.14789756 -0.69269943 -1.2490001 3020335
-0.14726675 -0.68762952 -1.247 3086135
-0.1466334 -0.68257618 -1.2450001 3219231
-0.1471477 -0.67877239 -1.2460001 3283732
-0.14615533 -0.67373753 -1.2476667 3545630
-0.14631152 -0.6685124 -1.2490001 3545880
-0.14773895 -0.66304058 -1.2490001 3415823
-0.14679214 -0.65719271 -1.2463334 3546120
-0.14702864 -0.65214288 -1.245 4004625
-0.14718612 -0.64690387 -1.2463334 3809315
-0.14726675 -0.64250189 -1.247 3745069
-0.14702864 -0.6379143 -1.245 3810857
-0.14736104 -0.63286465 -1.2458 4007194
-0.14678915 -0.62875241 -1.248 3876127
-0.14631152 -0.61141527 -1.2490001 3484722
-0.14631152 -0.60784668 -1.2490001 3681818
-0.14228579 -0.70550001 -1.245 3085368
-0.14240102 -0.70250571 -1.2459999 3150901
-0.14228579 -0.6972 -1.245 2955811
-0.14240102 -0.69301242 -1.2460001 2954528
-0.14268105 -0.68810958 -1.2450001 3019807
-0.14347152 -0.66755712 -1.2450001 3349007
-0.14347151 -0.6616286 -1.245 3152647
-0.14347151 -0.65688568 -1.245 3349762
-0.14347151 -0.65332854 -1.245 3676680
-0.14347151 -0.64740002 -1.245 3612451
-0.14347151 -0.6426571 -1.245 3285294
-0.14347151 -0.6379143 -1.245 3808055
-0.14347151 -0.63317144 -1.245 3809578
-0.14268105 -0.62803334 -1.2450001 3809070
-0.142515 -0.62349749 -1.247 3546140
-0.14262961 -0.61805618 -1.248 3481129
-0.14274295 -0.6126048 -1.2490001 4138296
-0.14274295 -0.60665715 -1.2490001 4204589
-0.14234644 -0.6015026 -1.2490001 3875107
-0.14155342 -0.59714097 -1.2490001 3415325
-0.14155342 -0.59238291 -1.2490001 4071476
-0.14155342 -0.58762479 -1.2490001 4268578
-0.13754292 -0.70550001 -1.245 2561288
-0.13793816 -0.7023381 -1.2450001 2496285
-0.13872863 -0.61064285 -1.245 4203312
-0.13872863 -0.60115719 -1.245 4006705
-0.13793816 -0.58771908 -1.2450001 4528665
-0.13786921 -0.58303255 -1.2458 4070441
-0.13765933 -0.57844973 -1.2482001 4135986
-0.13758834 -0.57374704 -1.2490001 4201250
-0.13739009 -0.56799763 -1.2490001 3678774
-0.13798486 -0.56145525 -1.2490001 4071953
-0.13798486 -0.55669713 -1.2490001 4005929
-0.13798486 -0.5531286 -1.2490001 4268855
-0.13679533 -0.54599142 -1.2490001 4139821
-0.13398579 -0.58811432 -1.245 4332842
-0.13398579 -0.5833714 -1.245 3940658
-0.1328001 -0.57744288 -1.245 4070974
-0.1329077 -0.57197237 -1.2459999 4137272
-0.13280009 -0.56677139 -1.245 3811649
-0.13280009 -0.56202859 -1.245 3943457
-0.13280009 -0.55728573 -1.245 3418903
-0.13301407 -0.55224037 -1.247 3940906
-0.13348231 -0.54699212 -1.2476667 4139311
-0.13290428 -0.5427869 -1.2482001 3943737
-0.13203722 -0.53766477 -1.2490001 3747354
-0.13203722 -0.53290665 -1.2490001 4204320
-0.13203722 -0.52933812 -1.2490001 4399906
-0.12924293 -0.57507145 -1.245 4072741
-0.12924293 -0.57151431 -1.245 4071973
-0.12924293 -0.56677139 -1.245 3942190
-0.12924293 -0.56202859 -1.245 4008730
-0.12924293 -0.55847144 -1.245 4008203
-0.12924293 -0.55254281 -1.245 4005133
-0.12845246 -0.54740477 -1.2450001 4202283
-0.12805721 -0.54305714 -1.245 4073514
-0.12816101 -0.53874576 -1.2459999 3876387
-0.12826358 -0.53323841 -1.2470001 4205078
-0.12846865 -0.52814859 -1.2490001 4204844
-0.12846865 -0.52458 -1.2490001 4203825
-0.1245001 -0.54187143 -1.245 4138789
-0.12331438 -0.53831428 -1.245 4204328
-0.12338105 -0.53266954 -1.2456667 4205358
-0.12361247 -0.52772474 -1.248 4270641
-0.12299686 -0.52315265 -1.2490001 4467497
-0.12133153 -0.51744288 -1.2490001 4138520
-0.12014201 -0.51149523 -1.2490001 4598070
-0.12093502 -0.50713372 -1.2490001 4008489
-0.12014201 -0.50316858 -1.2490001 4073758
-0.11975724 -0.53831428 -1.245 4204078
-0.1178601 -0.53096288 -1.245 4464941
-0.1173858 -0.52645719 -1.245 4204823
-0.11698695 -0.52228594 -1.2458 4401435
-0.11651184 -0.51716542 -1.2483335 4530720
-0.11657343 -0.51149523 -1.2490001 4597040
-0.11657343 -0.50673717 -1.2490001 4268314
-0.11617693 -0.5023756 -1.2490001 4334640
-0.11145723 -0.51222861 -1.245 4857929
-0.11157661 -0.50683969 -1.2463334 4400663
-0.11181533 -0.50197911 -1.2490001 4270385
-0.11181533 -0.49722096 -1.2490001 4531264
-0.11300486 -0.4936524 -1.2490001 4598581
-0.11221185 -0.48334321 -1.2490001 4466727
-0.10671437 -0.51104289 -1.245 4530753
-0.10671438 -0.50748569 -1.245 4269101
-0.10715799 -0.50299674 -1.2474 4204338
-0.10675152 -0.49761391 -1.2482001 4333881
-0.10705724 -0.49246287 -1.2490001 4466727
-0.10705724 -0.48770478 -1.2490001 4336152
-0.10705724 -0.48294669 -1.2490001 4270119
-0.10586771 -0.4793781 -1.2490001 4204871
-0.10586771 -0.47224098 -1.2490001 4466992
-0.10197151 -0.50748569 -1.245 4401470
-0.10197151 -0.50274289 -1.245 4334643
-0.10197152 -0.49800003 -1.245 3614008
-0.10197151 -0.49325714 -1.245 4008494
-0.10197152 -0.48851427 -1.245 4205862
-0.10208073 -0.48310003 -1.2463334 4336164
-0.10229914 -0.47818857 -1.2490001 4663849
-0.10229914 -0.47343051 -1.2490001 4531995
-0.10229915 -0.46748289 -1.2490001 4664122
-0.10110962 -0.46153527 -1.2490001 4533291
-0.10110962 -0.45796669 -1.2490001 4337198
-0.10110962 -0.4532086 -1.2490001 4663089
-0.0976239 -0.49760479 -1.2450001 4073263
-0.097228661 -0.49325711 -1.245 4007977
-0.097228661 -0.48851427 -1.245 4205885
-0.097384229 -0.48335844 -1.247 4335913
-0.097541049 -0.47818857 -1.2490001 4860197
-0.097541049 -0.47343051 -1.2490001 4860191
-0.097541057 -0.46748289 -1.2490001 4794936
-0.097541049 -0.46153527 -1.2490001 4467774
-0.097541049 -0.45677716 -1.2490001 4270644
-0.097144544 -0.45241559 -1.2490001 4664106
-0.096351527 -0.44845048 -1.2490001 4599085
-0.092485808 -0.49325711 -1.245 4138009
-0.092485808 -0.48851427 -1.245 4204838
-0.092535973 -0.48284289 -1.2456666 4401172
-0.092561051 -0.47704092 -1.2459999 4597278
-0.092636287 -0.4726724 -1.247 4663062
-0.092903525 -0.46735832 -1.2474 4729393
-0.092427708 -0.46165466 -1.2474 4664884
-0.092782944 -0.45677716 -1.2490001 4141101
-0.092709616 -0.45165619 -1.248 4794898
-0.092782944 -0.44726098 -1.2490001 4532762
-0.091593422 -0.44369239 -1.2490001 4466962
-0.088138185 -0.48811907 -1.2450001 4008491
-0.087789297 -0.48284411 -1.2456667 4138016
-0.087742947 -0.47665715 -1.245 4464952
-0.087742947 -0.47191429 -1.245 4202559
-0.087812476 -0.46754766 -1.2459999 4268092
-0.087742947 -0.46242857 -1.245 4860481
-0.088092856 -0.45755941 -1.2466 4599088
-0.087219618 -0.4521181 -1.2459999 4794909
-0.088205621 -0.44768593 -1.2482001 4597269
-0.088024847 -0.44250286 -1.2490001 4466703
-0.088421367 -0.43814129 -1.2490001 4533276
-0.083395325 -0.48811907 -1.2450001 4008489
-0.08304517 -0.48284417 -1.2456666 4138532
-0.083000086 -0.47665712 -1.245 4530234
-0.083067708 -0.47229242 -1.2459999 4071992
-0.083067708 -0.46754766 -1.2459999 4203047
-0.083000086 -0.46242857 -1.245 4402741
-0.083133429 -0.45841902 -1.247 4073020
-0.083132796 -0.45248032 -1.247 4204085
-0.083266765 -0.44726098 -1.2490001 4204079
-0.083266765 -0.44250289 -1.2490001 4269860
-0.08287026 -0.43814129 -1.2490001 4204842
-0.083266765 -0.43417624 -1.2490001 3747625
-0.077861995 -0.48811907 -1.2450001 4139284
-0.078257233 -0.48258576 -1.245 4400670
-0.078257233 -0.47665715 -1.245 3875129
-0.078257233 -0.47191429 -1.245 3547195
-0.078257233 -0.46717143 -1.245 4007724
-0.078257233 -0.46242857 -1.245 3942701
-0.078257233 -0.45768571 -1.245 3681069
-0.078424856 -0.45272225 -1.2476667 3876901
-0.078508668 -0.44726095 -1.2490001 4074281
-0.078508668 -0.44250286 -1.2490001 4073760
-0.07850866 -0.4377448 -1.2490001 4401699
-0.07850866 -0.43298668 -1.2490001 4402216
-0.073514372 -0.48732856 -1.245 4138004
-0.073514372 -0.48258576 -1.245 4203029
-0.073514372 -0.47665712 -1.245 3939638
-0.073514372 -0.47191429 -1.245 4004420
-0.073514372 -0.46717143 -1.245 4398904
-0.073323712 -0.46201202 -1.2458 4139052
-0.073035806 -0.4578262 -1.247 4074281
-0.072799385 -0.45254645 -1.2480001 4139813
-0.072561048 -0.44726095 -1.2490001 4335398
-0.072561041 -0.44250292 -1.2490001 4466209
-0.072561048 -0.4377448 -1.2490001 4270108
-0.072561041 -0.43298671 -1.2490001 4400682
-0.069957234 -0.48732856 -1.245 4139299
-0.067882232 -0.48228931 -1.245 3679264
-0.067585804 -0.47665712 -1.245 4203061
-0.067585804 -0.47191429 -1.245 4201788
-0.067585804 -0.46717143 -1.245 4071480
-0.067342706 -0.46190786 -1.2459999 4139060
-0.067282192 -0.45719606 -1.2482001 4073266
-0.067282185 -0.45244098 -1.2482001 4139058
-0.066613421 -0.44726098 -1.2490001 4202546
-0.066613421 -0.44250289 -1.2490001 4138032
-0.066613421 -0.4377448 -1.2490001 4008212
-0.066613421 -0.43298668 -1.2490001 4270369
-0.065423906 -0.42941812 -1.2490001 4205109
-0.060471512 -0.48851427 -1.245 3481628
-0.061420079 -0.48211145 -1.245 3417369
-0.061657224 -0.47665715 -1.245 4006211
-0.061657228 -0.47191429 -1.245 3612214
-0.061497804 -0.46705732 -1.2466 4072235
-0.062012471 -0.46165466 -1.2474 4204832
-0.061855331 -0.45677716 -1.2490001 3876107
-0.061855331 -0.45201907 -1.2490001 4007202
-0.061855331 -0.44726098 -1.2490001 3941432
-0.061855331 -0.44250289 -1.2490001 4335428
-0.061855331 -0.4377448 -1.2490001 4665133
-0.062251836 -0.4333832 -1.2490001 4271657
-0.063044854 -0.42941812 -1.2490001 4074043
-0.063044861 -0.42466003 -1.2490001 4007738
-0.056519132 -0.49839529 -1.2450001 4334137
-0.055728655 -0.49207142 -1.245 3678516
-0.056914371 -0.48851427 -1.245 3547683
-0.056914367 -0.48258576 -1.245 3613223
-0.056914371 -0.47665712 -1.245 3810113
-0.056959134 -0.47229242 -1.2460001 3677731
-0.057097238 -0.46748289 -1.2490001 4531229
-0.057097238 -0.46153527 -1.2490001 4467999
-0.057097238 -0.45677716 -1.2490001 4467484
-0.057097234 -0.45201907 -1.2490001 4139828
-0.057493746 -0.44765747 -1.2490001 4204093
-0.057493746 -0.44289941 -1.2490001 4269881
-0.05828676 -0.4377448 -1.2490001 4467504
-0.050985798 -0.52052855 -1.245 3808820
-0.050985798 -0.51578569 -1.245 3612221
-0.051776279 -0.51262391 -1.2450001 3941952
-0.051776279 -0.50788093 -1.2450001 3941923
-0.051776279 -0.50234765 -1.2450001 3611936
-0.052171513 -0.49800003 -1.245 3940403
-0.052171513 -0.49325711 -1.245 3744311
-0.052171513 -0.48851427 -1.245 3548712
-0.052171517 -0.48258576 -1.245 3547680
-0.052171513 -0.47665712 -1.245 3612201
-0.052296281 -0.47305048 -1.248 3217956
-0.052339144 -0.46748289 -1.2490001 3941663
-0.05233914 -0.46153527 -1.2490001 4270634
-0.05233914 -0.45677716 -1.2490001 4270109
-0.05233914 -0.45201907 -1.2490001 4270903
-0.05233914 -0.44845048 -1.2490001 4467514
-0.05233914 -0.44369239 -1.2490001 4071723
-0.051149618 -0.43655527 -1.2490001 3416609
-0.047428656 -0.52052855 -1.245 3809324
-0.047033418 -0.51657617 -1.2450001 3941684
-0.047428656 -0.51222861 -1.245 4205379
-0.047033418 -0.50788093 -1.2450001 3810591
-0.047428656 -0.50274289 -1.245 3546389
-0.047428656 -0.49800003 -1.245 4073272
-0.047428656 -0.49325711 -1.245 4073774
-0.047428656 -0.48851427 -1.245 3680033
-0.04742866 -0.48258573 -1.245 3481366
-0.047428656 -0.47665712 -1.245 3414557
-0.047581043 -0.47343051 -1.2490001 3217445
-0.047581047 -0.46748289 -1.2490001 3809827
-0.047581047 -0.46272478 -1.2490001 4732461
-0.048770569 -0.45796669 -1.2490001 4205603
-0.047977559 -0.45162258 -1.2490001 4009516
-0.047581047 -0.44845048 -1.2490001 4140073
-0.047581047 -0.43655527 -1.2490001 3153689
-0.042290561 -0.52131903 -1.2450001 4137243
-0.042685796 -0.51697141 -1.245 4203571
-0.042685796 -0.51222861 -1.245 4859692
-0.042475324 -0.50709814 -1.2457999 3350561
-0.042719133 -0.50195807 -1.2459999 3548191
-0.043081034 -0.49760479 -1.2450001 4399396
-0.042685796 -0.49325711 -1.245 4596246
-0.042685796 -0.48851427 -1.245 3679237
-0.042685799 -0.48258576 -1.245 3152645
-0.042721037 -0.47703904 -1.2460001 3086870
-0.042756278 -0.4726724 -1.247 3349022
-0.04282295 -0.46748289 -1.2490001 3809309
-0.04282295 -0.46272478 -1.2490001 4335906
-0.04282295 -0.43655527 -1.2490001 3679754
-0.038338181 -0.52131903 -1.2450001 3941928
-0.037942942 -0.51697141 -1.245 4007245
-0.037942942 -0.51222861 -1.245 4334392
-0.037942942 -0.50748569 -1.245 3743528
-0.037942942 -0.50274289 -1.245 3746094
-0.037942942 -0.49800003 -1.245 4270374
-0.037942942 -0.49325714 -1.245 4071959
-0.037983581 -0.48784792 -1.2463334 3218949
-0.038001992 -0.48217332 -1.247 2235147
-0.038003899 -0.47742099 -1.247 2627351
-0.038001992 -0.4726724 -1.247 3215905
-0.03806486 -0.46748289 -1.2490001 3612189
-0.038461365 -0.46193179 -1.2490001 3811357
-0.039254379 -0.45082954 -1.2490001 3811094
-0.039254379 -0.44845048 -1.2490001 3942415
-0.038064852 -0.44131336 -1.2490001 3615240
-0.038064852 -0.4377448 -1.2490001 3811853
-0.038461365 -0.4333832 -1.2490001 4205106
-0.038064852 -0.42703906 -1.2490001 4401715
-0.038461365 -0.42307401 -1.2490001 4336429
-0.038064852 -0.41871241 -1.2490001 4074794
-0.032014366 -0.70312852 -1.245 1770767
-0.032014374 -0.55254281 -1.245 2887713
-0.03280485 -0.54740477 -1.2450001 3017768
-0.033200085 -0.54305714 -1.245 2754848
-0.03280485 -0.53870952 -1.2450001 1706261
-0.032014374 -0.53238571 -1.2450001 2824729
-0.032014374 -0.52645713 -1.245 3809327
-0.03280485 -0.52131903 -1.2450001 4139071
-0.033200089 -0.51697141 -1.245 3810881
-0.033235643 -0.51158768 -1.2463334 3808306
-0.032873426 -0.50659144 -1.2476667 4005934
-0.033479899 -0.50172442 -1.2466 4073021
-0.033306755 -0.49722096 -1.2490001 3677995
-0.033306755 -0.49246287 -1.2490001 3152913
-0.033306755 -0.48770478 -1.2490001 2628359
-0.033306755 -0.48294669 -1.2490001 2430732
-0.033306755 -0.47818857 -1.2490001 2691593
-0.033306755 -0.47343051 -1.2490001 2954021
-0.033306759 -0.46748289 -1.2490001 3481648
-0.033306759 -0.46153527 -1.2490001 4008240
-0.032910254 -0.44210637 -1.2490001 4136218
-0.033306759 -0.4377448 -1.2490001 3679770
-0.032910254 -0.43338323 -1.2490001 3744292
-0.032910254 -0.4278321 -1.2490001 4007208
-0.033306759 -0.42228097 -1.2490001 4597541
-0.033306759 -0.41752288 -1.2490001 4598828
-0.033306759 -0.41157526 -1.2490001 4270653
-0.034496281 -0.40681714 -1.2490001 4202282
-0.027359126 -0.70538765 -1.2490001 1508628
-0.028501032 -0.70188093 -1.247 1705491
-0.028501034 -0.69713044 -1.247 1704972
-0.028120397 -0.69274962 -1.2476667 1836314
-0.027359128 -0.68754482 -1.2490001 1836558
-0.027271507 -0.6817857 -1.245 1772546
-0.027271507 -0.67822856 -1.245 1576450
-0.028061986 -0.67388099 -1.2450001 1314068
-0.027271509 -0.66755712 -1.2450001 1837318
-0.027271507 -0.6616286 -1.245 2034180
-0.027271509 -0.65688568 -1.245 1837326
-0.028457223 -0.65214288 -1.245 1770780
-0.028457223 -0.64740002 -1.245 1574665
-0.028457223 -0.6426571 -1.245 1509637
-0.028457223 -0.6379143 -1.245 1051142
-0.028061988 -0.63356674 -1.2450001 1312259
-0.027271511 -0.59285712 -1.245 2625044
-0.027271511 -0.58930004 -1.245 3017490
-0.027271513 -0.55728573 -1.245 2496802
-0.028457228 -0.55254281 -1.245 2690848
-0.028457226 -0.5478 -1.245 2820644
-0.028457228 -0.54305714 -1.245 2624026
-0.028457228 -0.53831428 -1.245 2164506
-0.028457232 -0.53238571 -1.245 3022373
-0.028457228 -0.52645713 -1.245 4269108
-0.028457228 -0.52171427 -1.245 4727108
-0.028457228 -0.51697141 -1.245 3285035
-0.028502312 -0.51186132 -1.247 3545377
-0.02854866 -0.50673717 -1.2490001 4530202
-0.02852485 -0.50157624 -1.248 4006452
-0.029738184 -0.49722099 -1.2490001 3282483
-0.02854866 -0.49246287 -1.2490001 2889498
-0.02894517 -0.4881013 -1.2490001 2692625
-0.028548662 -0.48294669 -1.2490001 2889496
-0.028548662 -0.47818857 -1.2490001 3085576
-0.028548662 -0.47343051 -1.2490001 3348251
-0.028548663 -0.46748289 -1.2490001 3611941
-0.028548662 -0.46153527 -1.2490001 3680053
-0.028548663 -0.44250289 -1.2490001 3545101
-0.028548663 -0.4377448 -1.2490001 3022603
-0.028548663 -0.43298668 -1.2490001 3416606
-0.028548663 -0.42822859 -1.2490001 3613473
-0.028152155 -0.42307401 -1.2490001 3810080
-0.028945172 -0.41831595 -1.2490001 4007204
-0.029738188 -0.41157526 -1.2490001 4136757
-0.029738188 -0.40562764 -1.2490001 4333095
-0.024980081 -0.69111341 -1.2490001 2360105
-0.024980081 -0.68754482 -1.2490001 1901844
-0.024980081 -0.6827867 -1.2490001 1902850
-0.024187064 -0.67842507 -1.2490001 1575939
-0.023367381 -0.67294705 -1.2476667 1640972
-0.023980463 -0.66793919 -1.2466 1771781
-0.023520654 -0.66219032 -1.2474 1640964
-0.023367386 -0.65670669 -1.2476667 1640713
-0.022601034 -0.65185916 -1.2490001 1640452
-0.023790557 -0.64710099 -1.2490001 1837058
-0.023076845 -0.64210504 -1.2490001 1705739
-0.022125226 -0.63782275 -1.2490001 1508624
-0.023137702 -0.6330862 -1.2459999 1377543
-0.022528654 -0.62842858 -1.245 2033413
-0.022232225 -0.62279648 -1.245 1966851
-0.02205437 -0.61633432 -1.245 2163980
-0.022199133 -0.61159962 -1.2455715 1968918
-0.023015892 -0.60723794 -1.2458 2362125
-0.022528656 -0.60234284 -1.245 2624281
-0.022054369 -0.59736288 -1.245 2429199
-0.022528656 -0.59285712 -1.245 2560802
-0.022528656 -0.58811432 -1.245 2560025
-0.022528656 -0.5833714 -1.245 2296863
-0.022189882 -0.57744288 -1.2450001 2690342
-0.022054372 -0.57127714 -1.245 2888481
-0.022199132 -0.56652176 -1.2455715 2755100
-0.022557503 -0.56161296 -1.2467144 2034965
-0.02256904 -0.55717051 -1.2474 2560274
-0.023002945 -0.5523057 -1.245 2690578
-0.022528658 -0.5478 -1.245 2755353
-0.022528656 -0.54305714 -1.245 2361882
-0.022528656 -0.53831428 -1.245 2230809
-0.022543047 -0.53276497 -1.2458889 3087652
-0.022550244 -0.52702093 -1.2463334 4074282
-0.022575643 -0.52283049 -1.2476667 4006960
-0.022584109 -0.51707464 -1.2481111 3413782
-0.02260104 -0.51149529 -1.2490001 3414038
-0.022601042 -0.50673717 -1.2490001 3874836
-0.023195803 -0.50257385 -1.2490001 3611952
-0.024980089 -0.49127337 -1.2490001 2692112
-0.023394059 -0.48730826 -1.2490001 2822921
-0.022601042 -0.48270878 -1.2490001 3478279
-0.022601044 -0.47818857 -1.2490001 3281171
-0.022601044 -0.4731926 -1.2490001 3479081
-0.023552662 -0.46843454 -1.2490001 3612191
-0.024980091 -0.46272478 -1.2490001 3482384
-0.023790568 -0.44607145 -1.2490001 3546659
-0.022601044 -0.44250286 -1.2490001 3348748
-0.022601044 -0.4377448 -1.2490001 3152140
-0.022601046 -0.43298668 -1.2490001 3414053
-0.022601046 -0.42822862 -1.2490001 3807015
-0.022601046 -0.4234705 -1.2490001 3478309
-0.022601044 -0.41752288 -1.2490002 3544344
-0.022125235 -0.41181317 -1.2490001 4004145
-0.017842939 -0.63639528 -1.2490001 1313306
-0.017049924 -0.63243026 -1.2490001 1116947
-0.016237861 -0.62779331 -1.2476667 1444872
-0.016857034 -0.62282419 -1.2466 1574674
-0.01663913 -0.61805618 -1.248 1573911
-0.016653419 -0.6126048 -1.2490001 1836828
-0.016653419 -0.60665715 -1.2490001 2099477
-0.016256912 -0.60229564 -1.2490001 2230589
-0.016879894 -0.59746993 -1.2482001 2362653
-0.016653417 -0.59238291 -1.2490001 2558994
-0.01625691 -0.58802128 -1.2490001 2559492
-0.016639132 -0.58358669 -1.248 2362890
-0.01684713 -0.57733816 -1.2457999 2296593
-0.016612465 -0.57197237 -1.2459999 2690588
-0.01665342 -0.56740296 -1.2490001 2952475
-0.017049927 -0.56185174 -1.2490001 1379852
-0.016653419 -0.55669713 -1.2490001 2363669
-0.016256914 -0.55233562 -1.2490001 2559767
-0.017011831 -0.5479902 -1.2463334 2427933
-0.016600084 -0.54305714 -1.245 1706015
-0.016600084 -0.53831428 -1.245 2164233
-0.016635643 -0.5335235 -1.2476667 3348783
-0.016653422 -0.52814859 -1.2490001 4466491
-0.01665342 -0.52339053 -1.2490001 3481136
-0.016653422 -0.51744288 -1.2490001 3676451
-0.01665342 -0.51149523 -1.2490001 3348515
-0.01665342 -0.5079267 -1.2490001 3611934
-0.017842947 -0.48651525 -1.2490001 2887705
-0.017842947 -0.48294669 -1.2490001 3217947
-0.017842947 -0.47818857 -1.2490001 3085849
-0.017842948 -0.44369239 -1.2490001 3217954
-0.016653426 -0.4377448 -1.2490001 2824217
-0.016653424 -0.43298668 -1.2490001 2953264
-0.016256919 -0.42862511 -1.2490001 2821675
-0.017842948 -0.4234705 -1.2490001 3215383
-0.017842948 -0.41752291 -1.2490001 3873813
-0.017049933 -0.41197178 -1.2490001 4532019
-0.012291829 -0.62767208 -1.2490001 1575686
-0.012291829 -0.62370706 -1.2490001 1247500
-0.011895321 -0.61855245 -1.2490001 1443858
-0.012133225 -0.61308062 -1.2490001 1508878
-0.01229183 -0.60626066 -1.2490001 1836814
-0.01229183 -0.60229564 -1.2490001 2098978
-0.013084845 -0.5983305 -1.2490001 2296340
-0.013084845 -0.59238291 -1.2490001 2754827
-0.01229183 -0.5872283 -1.2490001 2558478
-0.013084846 -0.58286667 -1.2490001 2165521
-0.013084846 -0.57810861 -1.2490001 1772300
-0.013084846 -0.57335049 -1.2490001 2297103
-0.013084847 -0.55193907 -1.2490001 2364447
-0.011895323 -0.54718101 -1.2490001 1575197
-0.011498816 -0.54281944 -1.2490001 919061
-0.012124848 -0.53803182 -1.2482001 1837074
-0.011895324 -0.53290665 -1.2490001 3349297
-0.011895324 -0.52814859 -1.2490001 4399896
-0.011498816 -0.52378702 -1.2490001 3874843
-0.01213323 -0.51696706 -1.2490001 3940907
-0.011895326 -0.51149523 -1.2490001 3415080
-0.011895325 -0.5079267 -1.2490001 3218216
-0.011895329 -0.43655527 -1.2490001 2691090
-0.013084852 -0.42941812 -1.2490001 2296859
-0.011498827 -0.30253559 -1.2490001 5387837
-0.0083267484 -0.61974198 -1.2490001 1378065
-0.0083267512 -0.54599142 -1.2490001 1377303
-0.0083267521 -0.54242289 -1.2490001 1180696
-0.0083267521 -0.53766477 -1.2490001 1705761
-0.0083267521 -0.53290665 -1.2490001 3217201
-0.0083267521 -0.52933812 -1.2490001 5054497
-0.0083267521 -0.52458 -1.2490001 4006172
-0.0071372329 -0.43655527 -1.2490001 3347723
-0.0065424759 -0.31700811 -1.2490001 4729403
-0.007137238 -0.31165525 -1.2490001 5387310
-0.007137238 -0.30689716 -1.2490001 5781809
-0.007137239 -0.30213907 -1.2490001 5978947
-0.0059477151 -0.29857048 -1.2490001 6177612
-0.0059477198 -0.19151333 -1.2490001 5379878
-0.0059477198 -0.18794477 -1.2490001 5708076
-0.0059477203 -0.18318668 -1.2490001 5445923
-0.0059477203 -0.17842859 -1.2490001 5580069
-0.0059477207 -0.17486002 -1.2490001 5843011
-0.0035686616 -0.43655527 -1.2490001 3219212
-0.0023791427 -0.32355052 -1.2490001 4531747
-0.0023791434 -0.31760287 -1.2490001 5191999
-0.0023791431 -0.31165525 -1.2490001 5913397
-0.0023791434 -0.30689716 -1.2490001 6177331
-0.0023791436 -0.30213907 -1.2490001 6309439
-0.0019826395 -0.21609685 -1.2490001 4392711
-0.0023791476 -0.21173525 -1.2490001 3935500
-0.0023791478 -0.20697714 -1.2490001 4264716
-0.002379148 -0.20221905 -1.2490001 4528389
-0.0011896244 -0.19627143 -1.2490001 5248780
-0.0023791485 -0.19151333 -1.2490001 5444650
-0.0023791487 -0.18794477 -1.2490001 5641265
-0.002379149 -0.18318668 -1.2490001 5641485
-0.0023791492 -0.17842859 -1.2490001 5709844
-0.0019826414 -0.17327398 -1.2490001 5972756
0.0035684772 -0.34139335 -1.2490001 3939623
0.0027754609 -0.33742827 -1.2490001 4070671
0.002373239 -0.33253333 -1.247 4334608
0.0023760961 -0.32804477 -1.248 4991244
0.0023789527 -0.32355052 -1.2490001 5452329
0.0023789525 -0.31760287 -1.2490001 5716806
0.0023789522 -0.31165525 -1.2490001 6372676
0.0019824442 -0.30729368 -1.2490001 6375224
0.001982444 -0.30253559 -1.2490001 6506053
0.0035684716 -0.21530382 -1.2490001 4198441
0.0023789478 -0.21173525 -1.2490001 4197919
0.0023789476 -0.20697716 -1.2490001 4395049
0.0035684712 -0.20221905 -1.2490001 4395012
0.0035684709 -0.19865048 -1.2490001 4722951
0.0027754547 -0.19230637 -1.2490001 5378582
0.0023789466 -0.18794478 -1.2490001 5510685
0.0023789464 -0.18318668 -1.2490001 5839126
0.0023789462 -0.17842859 -1.2490001 5709332
0.0023789459 -0.17248097 -1.2490001 6038276
0.0023789457 -0.16534382 -1.2490001 6365727
0.0035684695 -0.16296476 -1.2490001 6495769
0.0035684688 -0.14869049 -1.2490001 6698553
0.0035684686 -0.14274287 -1.2490001 7092276
0.0035684684 -0.1391743 -1.2490001 7353651
0.0083265733 -0.36042574 -1.2490001 3415041
0.0075335572 -0.35646066 -1.2490001 3480842
0.0071370495 -0.35209906 -1.2490001 3678215
0.007130383 -0.34706384 -1.248 3480342
0.0071189534 -0.34176096 -1.2460001 3939373
0.0071141915 -0.33674288 -1.245 4400430
0.0071141911 -0.33200002 -1.245 4860201
0.0071303812 -0.32804477 -1.248 5452847
0.0071370476 -0.32355052 -1.2490001 5718075
0.0071370471 -0.31760287 -1.2490001 5783633
0.0067405393 -0.31205177 -1.2490001 6177627
0.0083265668 -0.22006191 -1.2490001 4459017
0.0071370429 -0.21649335 -1.2490001 4197647
0.0071370429 -0.21173525 -1.2490001 4196365
0.0071370425 -0.20697716 -1.2490001 4458260
0.0071370425 -0.20221905 -1.2490001 4655876
0.0071370425 -0.19746095 -1.2490001 4984336
0.0071370425 -0.19270286 -1.2490001 5182235
0.0071370425 -0.18794477 -1.2490001 5379349
0.007137042 -0.18318668 -1.2490001 5839417
0.0071370415 -0.17842859 -1.2490001 5447960
0.007137042 -0.17248097 -1.2490001 5776136
0.0071370415 -0.16534382 -1.2490001 6168631
0.0071370411 -0.16296476 -1.2490001 6364970
0.0059475168 -0.14750096 -1.2490001 6698035
0.0067405323 -0.14234637 -1.2490001 6895147
0.0071370401 -0.13798478 -1.2490001 7288901
0.0075335479 -0.13362318 -1.2490001 7486269
0.013084669 -0.36756286 -1.2490001 3678228
0.012291654 -0.36121875 -1.2490001 3481132
0.011884669 -0.35657048 -1.248 3547160
0.011884669 -0.35181624 -1.248 3677976
0.011876096 -0.34678668 -1.247 3677975
0.011857049 -0.34148571 -1.245 4138787
0.011857049 -0.33674285 -1.245 4794930
0.011857049 -0.33200002 -1.245 5323052
0.011876095 -0.32778096 -1.247 5786189
0.011895144 -0.32355052 -1.2490001 5588297
0.011498636 -0.31918892 -1.2490001 5259855
0.010705615 -0.22006191 -1.2490001 4459014
0.011895139 -0.21649335 -1.2490001 4132097
0.011895139 -0.21173525 -1.2490001 3934978
0.01189514 -0.20697716 -1.2490001 4196611
0.011895139 -0.20221905 -1.2490001 4524548
0.011895139 -0.19746095 -1.2490001 4853774
0.011895139 -0.19270286 -1.2490001 5117966
0.011895138 -0.18794477 -1.2490001 5379340
0.011895138 -0.18318668 -1.2490001 5708577
0.011895138 -0.17842859 -1.2490001 5644299
0.011895137 -0.17248097 -1.2490001 5776387
0.011895138 -0.16653335 -1.2490001 6103831
0.011895138 -0.16177523 -1.2490001 6366490
0.011895137 -0.15701714 -1.2490001 6171662
0.010705613 -0.14155334 -1.2490001 6894356
0.010705612 -0.13798478 -1.2490001 7026232
0.011498627 -0.13362318 -1.2490001 7157809
0.017842764 -0.37707907 -1.2490001 3415580
0.01665324 -0.37351048 -1.2490001 3087875
0.016638955 -0.36845812 -1.248 3809541
0.016599908 -0.36282855 -1.245 3612427
0.016599907 -0.35808569 -1.245 3809298
0.016599907 -0.35334286 -1.245 3742476
0.016599907 -0.34741431 -1.245 4004897
0.016599907 -0.34148571 -1.245 4795685
0.016599907 -0.33674285 -1.245 5453115
0.016599907 -0.33200002 -1.245 5913916
0.016626572 -0.32778096 -1.247 6177864
0.016653238 -0.32355052 -1.2490001 5915435
0.016653238 -0.31998193 -1.2490001 5587516
0.017842758 -0.27121145 -1.2490001 4073254
0.016653234 -0.26645336 -1.2490001 4335151
0.016653234 -0.26169524 -1.2490001 5588017
0.016653234 -0.21649334 -1.2490001 3868929
0.016653232 -0.21173525 -1.2490001 3803905
0.016653232 -0.20697716 -1.2490001 4000513
0.016653232 -0.20221905 -1.2490001 4328707
0.016638948 -0.19730382 -1.248 4789257
0.016624661 -0.19239429 -1.247 5051651
0.016638946 -0.18779524 -1.248 5378566
0.016624659 -0.18289335 -1.247 5772303
0.016653232 -0.17842859 -1.2490001 5775362
0.016653232 -0.17248097 -1.2490001 5776644
0.01665323 -0.16653335 -1.2490001 5974296
0.016653232 -0.16177523 -1.2490001 6169373
0.01665323 -0.15701714 -1.2490001 6039816
0.015463708 -0.15225905 -1.2490001 6106130
0.017842753 -0.1391743 -1.2490001 6892062
0.017842753 -0.1296581 -1.2490001 7288598
0.02497991 -0.40681714 -1.2490001 3480358
0.024186891 -0.40245557 -1.2490001 4333059
0.023790382 -0.39730099 -1.2490001 3088144
0.022600859 -0.3925429 -1.2490001 3546908
0.022574194 -0.38737082 -1.2476667 3350044
0.022574194 -0.3826178 -1.2476667 3415578
0.022574194 -0.37786478 -1.2476667 3481117
0.022550067 -0.37271303 -1.2463334 3351052
0.022528481 -0.36757144 -1.245 3613451
0.022528483 -0.36282858 -1.245 3286294
0.022528481 -0.35808572 -1.245 3481634
0.020947527 -0.35294765 -1.2450001 3545635
0.021738004 -0.34820479 -1.245 4204074
0.02015705 -0.34148571 -1.245 5388596
0.022528479 -0.33650571 -1.245 6046543
0.022528481 -0.33200002 -1.245 6373957
0.02256467 -0.32778096 -1.247 6045502
0.022125049 -0.32378843 -1.2490001 5783091
0.024979904 -0.28191715 -1.2490001 2953230
0.024186887 -0.27795208 -1.2490001 3810338
0.022600854 -0.27240101 -1.2490002 3942189
0.022600856 -0.26645336 -1.2490001 4074802
0.022600856 -0.26169524 -1.2490001 5983806
0.023076663 -0.25717506 -1.2490001 5588014
0.023790378 -0.25217906 -1.2490001 2038804
0.023790376 -0.24742097 -1.2490001 3086100
0.023790378 -0.24266288 -1.2490001 3284999
0.022600854 -0.23790476 -1.2490001 4661256
0.02141133 -0.23195715 -1.2490001 3802408
0.020221805 -0.22957809 -1.2490001 4064283
0.02294072 -0.22176126 -1.2490001 4196106
0.022600854 -0.21649335 -1.2490001 3999233
0.022600854 -0.21173525 -1.2490001 3999234
0.022590058 -0.20686606 -1.2483335 3607046
0.022575457 -0.20200446 -1.2476667 4066579
0.022528473 -0.19682857 -1.245 4460591
0.022539269 -0.19218794 -1.2456667 4919313
0.022528473 -0.18734285 -1.245 5182731
0.02255133 -0.1827943 -1.2463334 5380640
0.022600852 -0.17842859 -1.2490001 5578509
0.022600854 -0.17248096 -1.2490002 5512981
0.02260085 -0.16653335 -1.2490001 5972503
0.02260085 -0.16177523 -1.2490001 6300708
0.02260085 -0.15701716 -1.2490001 6103854
0.023393868 -0.15265557 -1.2490001 6039083
0.029738005 -0.41514385 -1.2490001 4135968
0.028548481 -0.41157526 -1.2490001 3545642
0.028548481 -0.40681714 -1.2490001 3609909
0.028548479 -0.40205908 -1.2490001 3872517
0.028120223 -0.39727211 -1.2476667 3217929
0.028729241 -0.39250001 -1.2466 3282961
0.028457051 -0.38654286 -1.245 3414802
0.028457051 -0.3818 -1.245 3547148
0.028457051 -0.37705714 -1.245 3873817
0.028457053 -0.37231427 -1.245 3744018
0.028061816 -0.36796665 -1.2450001 3876115
0.029642764 -0.33674288 -1.245 6178383
0.028457049 -0.33200002 -1.245 6242125
0.028504668 -0.32778284 -1.247 5847101
0.028548477 -0.32355052 -1.2490001 5584439
0.028310573 -0.3180787 -1.2490001 5255237
0.028151967 -0.28271019 -1.2490001 3084046
0.028548475 -0.27834857 -1.2490001 4006950
0.028548475 -0.27240098 -1.2490001 4136982
0.028548473 -0.26645336 -1.2490001 4728871
0.028548473 -0.26169524 -1.2490001 6312276
0.028548473 -0.25693715 -1.2490001 5123620
0.028548473 -0.25217906 -1.2490001 2037517
0.028151965 -0.24781749 -1.2490001 3151633
0.027358949 -0.24266288 -1.2490001 3742983
0.029737996 -0.23195715 -1.2490001 3737861
0.028548472 -0.22957809 -1.2490001 3737348
0.028548472 -0.22125144 -1.2490001 4130838
0.028548472 -0.21649335 -1.2490001 3802881
0.028548472 -0.21173525 -1.2490001 3672577
0.028548472 -0.20697716 -1.2490001 3738881
0.028526567 -0.20205811 -1.248 4000260
0.028457044 -0.19682857 -1.245 4458513
0.028457044 -0.19208571 -1.245 4855311
0.028457042 -0.18734285 -1.245 5051141
0.028457042 -0.18260001 -1.245 5314571
0.02854847 -0.17842859 -1.2490001 5577492
0.028548472 -0.17248097 -1.2490001 5643286
0.02854847 -0.16653335 -1.2490001 5840656
0.02854847 -0.16177523 -1.2490001 6037527
0.02854847 -0.15820667 -1.2490001 6298911
0.034496102 -0.43655527 -1.2490001 3414292
0.034496102 -0.43298668 -1.2490001 3414309
0.034496102 -0.42822859 -1.2490001 3479838
0.033703089 -0.42307401 -1.2490001 3150353
0.03330658 -0.41752291 -1.2490001 3413532
0.03330658 -0.41157526 -1.2490001 3675421
0.033251341 -0.40735334 -1.247 3806496
0.033199914 -0.40314287 -1.245 3872017
0.033199914 -0.39840001 -1.245 3414552
0.033199914 -0.39247143 -1.245 3349776
0.033199914 -0.38654286 -1.245 3873567
0.03319991 -0.3818 -1.245 3873569
0.03319991 -0.37705714 -1.245 3742999
0.032804672 -0.37270951 -1.2450001 3745286
0.03319991 -0.33555713 -1.245 6178113
0.033199906 -0.33200002 -1.245 5914176
0.033251338 -0.32778287 -1.247 5649978
0.033306576 -0.32355052 -1.2490001 5518132
0.033306576 -0.31760287 -1.2490001 5057852
0.033703085 -0.31205177 -1.2490001 5059137
0.033306576 -0.30689716 -1.2490001 5387836
0.033306576 -0.3033286 -1.2490001 5387576
0.034496095 -0.29143333 -1.2490001 2164767
0.034496095 -0.28786477 -1.2490001 2951446
0.033306573 -0.28310668 -1.2490001 3804959
0.033278953 -0.27812666 -1.248 4469300
0.033306573 -0.27240098 -1.2490001 4530978
0.033306573 -0.26645336 -1.2490001 5453362
0.033703081 -0.26209176 -1.2490001 5917534
0.034496095 -0.25812668 -1.2490001 5980986
0.034496095 -0.25217906 -1.2490001 2365711
0.034496095 -0.24861048 -1.2490001 2758668
0.033306573 -0.24385239 -1.2490001 3674905
0.033306573 -0.23195715 -1.2490001 3737362
0.033306573 -0.22957809 -1.2490001 3671562
0.033068668 -0.22196515 -1.2490001 3933990
0.033306573 -0.21649334 -1.2490001 3869189
0.033306569 -0.21173525 -1.2490001 3672841
0.033306569 -0.20697714 -1.2490001 3869954
0.033306569 -0.20221905 -1.2490001 4065537
0.033199903 -0.19682857 -1.245 4459529
0.033199903 -0.19208571 -1.245 4722713
0.033199903 -0.18734285 -1.245 4919822
0.033199903 -0.18260001 -1.245 5313042
0.033306569 -0.17842859 -1.2490001 5643285
0.033306569 -0.17248097 -1.2490001 5775134
0.032910064 -0.16692987 -1.2490001 5906995
0.032117046 -0.16177523 -1.2490001 5906465
0.0392542 -0.45201907 -1.2490001 3478805
0.0392542 -0.44726098 -1.2490001 3413006
0.038064677 -0.44250286 -1.2490001 3479832
0.038064674 -0.4377448 -1.2490001 3740952
0.038064674 -0.43298668 -1.2490001 3412758
0.038064677 -0.42822859 -1.2490001 3281187
0.038064674 -0.4234705 -1.2490001 2428691
0.038230199 -0.41719338 -1.2466 3477527
0.037547532 -0.41223335 -1.2450001 3675413
0.037942767 -0.4078857 -1.245 3478543
0.037942767 -0.40314287 -1.245 3608585
0.037942767 -0.39840001 -1.245 3479832
0.037942767 -0.39247143 -1.245 3415562
0.037942767 -0.38654286 -1.245 3677980
0.037547529 -0.38219523 -1.2450001 3677229
0.037547529 -0.37745237 -1.2450001 3677723
0.039128479 -0.34029999 -1.245 6900059
0.037942763 -0.33674288 -1.245 6373965
0.037942763 -0.33200002 -1.245 5912125
0.038035151 -0.32804477 -1.248 5518135
0.03806467 -0.32355052 -1.2490001 5387318
0.038064674 -0.31760287 -1.2490001 4994868
0.03806467 -0.31165525 -1.2490001 4731949
0.03806467 -0.30689716 -1.2490001 5125930
0.038461182 -0.30253559 -1.2490001 5383978
0.039254192 -0.29738095 -1.2490001 4136977
0.038461179 -0.29222637 -1.2490001 1903128
0.03806467 -0.28786477 -1.2490001 2754839
0.03806467 -0.28310668 -1.2490001 4266534
0.037972286 -0.27768093 -1.2459999 4467747
0.03800308 -0.27196223 -1.247 4990746
0.03806467 -0.26645336 -1.2490001 5649462
0.038064666 -0.26169524 -1.2490001 5255512
0.038064666 -0.25693715 -1.2490001 4465432
0.038064666 -0.25217906 -1.2490001 2955281
0.039254192 -0.24742097 -1.2490001 3085323
0.038064666 -0.24385239 -1.2490001 4069130
0.037668161 -0.22085494 -1.2490001 3933190
0.037668161 -0.21609685 -1.2490001 3672587
0.038064662 -0.21173525 -1.2490001 3279126
0.038064662 -0.20697716 -1.2490001 3475461
0.038064662 -0.20221905 -1.2490001 3737605
0.038033236 -0.19730189 -1.248 4196108
0.037972283 -0.19224095 -1.2460001 4458508
0.037942756 -0.18734285 -1.245 4918045
0.038003713 -0.18289144 -1.247 5445408
0.038033236 -0.17828476 -1.248 5841953
0.03806467 -0.17248097 -1.2490001 5972516
0.038064662 -0.16772287 -1.2490001 6235688
0.044012297 -0.4793781 -1.2490001 2234629
0.044012297 -0.47343051 -1.2490001 2955289
0.044012293 -0.46748289 -1.2490001 3413529
0.044012293 -0.46153527 -1.2490001 3610395
0.043219279 -0.45638067 -1.2490001 3740426
0.042822771 -0.45201907 -1.2490001 3740939
0.042822771 -0.44726098 -1.2490001 3413007
0.042822771 -0.44250289 -1.2490001 3281957
0.042822771 -0.4377448 -1.2490001 3217425
0.042822771 -0.43298671 -1.2490001 3086342
0.042789437 -0.42788666 -1.248 3085603
0.04268562 -0.42211428 -1.245 2823692
0.042720862 -0.41770574 -1.2459999 3348486
0.042685624 -0.41262859 -1.245 3413509
0.042290386 -0.40828094 -1.2450001 3217412
0.041499909 -0.39958572 -1.245 3545602
0.041499909 -0.39247143 -1.2450001 3417352
0.041499909 -0.38772857 -1.245 3351305
0.043871332 -0.34029999 -1.245 6442050
0.042685617 -0.33674288 -1.245 6242367
0.042685617 -0.33200002 -1.245 5716537
0.042822767 -0.32830858 -1.2490001 5191979
0.042822767 -0.32355052 -1.2490001 5581603
0.042822767 -0.31760287 -1.2490001 5254704
0.042822767 -0.31165525 -1.2490001 4662566
0.042822767 -0.30689716 -1.2490001 4732185
0.042822767 -0.30213907 -1.2490001 4533783
0.042822763 -0.29738095 -1.2490001 3412484
0.042822763 -0.29262286 -1.2490001 2427654
0.042822763 -0.28786477 -1.2490001 3280404
0.042754188 -0.28265142 -1.247 4534300
0.042685617 -0.27745712 -1.245 4075031
0.042475138 -0.27217582 -1.2458 5124371
0.043032479 -0.26699412 -1.2482001 6308145
0.042822763 -0.26169524 -1.2490001 4993855
0.042822763 -0.25693715 -1.2490001 4333846
0.042822763 -0.25217906 -1.2490001 2888472
0.043219272 -0.24781749 -1.2490001 2889241
0.042822763 -0.24385239 -1.2490001 5384725
0.041633241 -0.21530382 -1.2490001 3410182
0.04282276 -0.21173525 -1.2490001 3279114
0.04282276 -0.20697716 -1.2490001 3409928
0.04282276 -0.20221905 -1.2490001 3672077
0.04282276 -0.19746095 -1.2490001 3869211
0.04282276 -0.19270286 -1.2490001 4197385
0.042756092 -0.18764381 -1.247 4722458
0.042789426 -0.18303905 -1.248 5250340
0.042789426 -0.17828476 -1.248 5776684
0.04282276 -0.17248097 -1.2490001 6171678
0.048770394 -0.48651525 -1.2490001 3085597
0.048770394 -0.48294669 -1.2490001 3019550
0.047580872 -0.47818857 -1.2490001 3218709
0.047580872 -0.47343051 -1.2490001 3612717
