# .PCD v0.7 - Point Cloud Data file format
VERSION 0.7
FIELDS x y z rgba
SIZE 4 4 4 4
TYPE F F F U
COUNT 1 1 1 1
WIDTH 1108
HEIGHT 1
VIEWPOINT 0 0 0 1 0 0 0
POINTS 1108
DATA ascii
-0.32281238 -0.11488827 -1.4065202 5905699
-0.32417554 -0.10924634 -1.4073601 6300706
-0.32530493 -0.10446005 -1.4078327 6299923
-0.32706016 -0.10024825 -1.4104259 6168089
-0.32768553 -0.09584944 -1.4117739 6167851
-0.32855731 -0.092135221 -1.4120994 6036257
-0.33000416 -0.086200818 -1.4130974 5642250
-0.33149618 -0.081732273 -1.4143711 5379329
-0.33326238 -0.077043176 -1.4158943 5117959
-0.33462638 -0.072057068 -1.4167424 5377289
-0.33622843 -0.067253605 -1.4195424 5444130
-0.33694881 -0.062944889 -1.4209979 5577493
-0.33945042 -0.058234606 -1.4228159 6169633
-0.33954507 -0.053810108 -1.4239776 6892057
-0.34079301 -0.049188588 -1.4235438 7482401
-0.34120756 -0.044311095 -1.4243523 8337455
-0.34171075 -0.039860819 -1.4245147 9062459
-0.31004488 -0.16239095 -1.3880177 4459532
-0.31066936 -0.1599218 -1.3886325 4654867
-0.31171018 -0.1558065 -1.389657 4919047
-0.31295913 -0.15086818 -1.3908864 5247756
-0.31420821 -0.14592984 -1.3921161 5179651
-0.31606841 -0.14080262 -1.3938167 4984084
-0.31836492 -0.13665268 -1.3952392 5051412
-0.31993371 -0.13180131 -1.3964298 5182480
-0.32026881 -0.12747347 -1.3980877 5444636
-0.32119888 -0.1235961 -1.399417 5643301
-0.32302088 -0.11908169 -1.400731 5709072
-0.32459384 -0.11417563 -1.4026114 5775389
-0.32588536 -0.10946912 -1.4046799 6169627
-0.32709545 -0.10436472 -1.4052334 6234393
-0.3283506 -0.099021941 -1.4057115 5971229
-0.32957894 -0.094465435 -1.4075185 6036770
-0.33061749 -0.090359196 -1.4085408 5839134
-0.33119708 -0.085741237 -1.4090451 5445134
-0.33275121 -0.081636727 -1.4100718 5248513
-0.3339861 -0.077440038 -1.4126539 5249537
-0.34250206 -0.043768425 -1.421037 8731705
-0.34278065 -0.037914161 -1.4209788 9719615
-0.34260911 -0.034437571 -1.4216709 10046284
-0.30831552 -0.16682336 -1.3815218 3869446
-0.309488 -0.16288996 -1.384074 4131080
-0.31048793 -0.15903583 -1.3852581 4523535
-0.31282729 -0.155195 -1.3861526 4852744
-0.31320977 -0.1500774 -1.3874683 4788237
-0.31522161 -0.14518455 -1.3891679 4786952
-0.3166135 -0.1406247 -1.3906782 4525853
-0.31896704 -0.13442336 -1.3930867 5379334
-0.32145959 -0.12456825 -1.3955402 5379351
-0.32831401 -0.097466707 -1.4022875 5643781
-0.34302783 -0.031838942 -1.4165474 10637646
-0.34349519 -0.027727295 -1.4161516 10769236
-0.30575353 -0.174548 -1.3742064 3212801
-0.3067829 -0.17116517 -1.3765893 3475457
-0.307926 -0.16676044 -1.3779427 4000260
-0.31004268 -0.16199993 -1.3790933 3999750
-0.31184071 -0.15804684 -1.3800453 4130822
-0.31255543 -0.15386797 -1.3810985 4655620
-0.31406689 -0.14955236 -1.3824139 4657154
-0.34477621 -0.029176679 -1.4121151 10442582
-0.34346217 -0.026094276 -1.4126039 10376533
-0.30520111 -0.17552964 -1.3712659 2885638
-0.3067764 -0.17065519 -1.372468 3279105
-0.30965465 -0.16604307 -1.3735566 3607046
-0.31090087 -0.1611155 -1.3747835 3934989
-0.31193954 -0.15700921 -1.3758057 4131332
-0.31220806 -0.15277815 -1.377067 4262916
-0.31401664 -0.14879665 -1.3778504 4133633
-0.34442645 -0.028692801 -1.4080508 10377314
-0.34378654 -0.024511814 -1.4086702 10376790
-0.30503768 -0.17427179 -1.3673102 2819341
-0.30665839 -0.16956934 -1.3682421 3212545
-0.30942827 -0.164938 -1.3693479 3213574
-0.31047213 -0.16049066 -1.3697379 3344385
-0.31162256 -0.15546218 -1.3699136 3475208
-0.31283468 -0.15146938 -1.3727012 4000523
-0.31374866 -0.14785582 -1.3736008 3936513
-0.34441411 -0.027408633 -1.4053812 10179928
-0.34390265 -0.023212869 -1.4046732 10047306
-0.34401822 -0.019245077 -1.4038841 10047832
-0.30495548 -0.17249164 -1.3630351 2819585
-0.30638623 -0.16824105 -1.3631831 3015683
-0.30915666 -0.16361192 -1.3642976 3212547
-0.31006879 -0.1598058 -1.3647969 3278084
-0.311351 -0.15413612 -1.3648632 3736833
-0.31271034 -0.14976108 -1.3681943 3802374
-0.31359464 -0.14595041 -1.3684385 3606017
-0.34396136 -0.025198538 -1.396964 9585750
-0.34342182 -0.021806903 -1.3996398 9784916
-0.34388202 -0.018580604 -1.4013532 9853009
-0.30453378 -0.17135273 -1.3570276 2622213
-0.30567884 -0.16682592 -1.3581547 2753035
-0.30801493 -0.16210899 -1.3593067 2949890
-0.30991399 -0.15731317 -1.3604889 2949894
-0.3111698 -0.15325205 -1.3614963 3212035
-0.3126238 -0.14750321 -1.3629274 3277833
-0.31345457 -0.14421821 -1.3637453 2885122
-0.31473684 -0.13854852 -1.3638117 3540225
-0.34315306 -0.024080835 -1.3936663 9258827
-0.34252375 -0.021145426 -1.3944237 9390928
-0.30560571 -0.16524357 -1.3543545 2687490
-0.30671901 -0.16040829 -1.3545847 2884097
-0.30833882 -0.15571256 -1.3555229 2752769
-0.31024712 -0.15178534 -1.3564882 2884097
-0.31132549 -0.14725499 -1.3570184 2949377
-0.31274992 -0.14279439 -1.3587242 3146242
-0.31442922 -0.13796461 -1.3599218 3081481
-0.31559026 -0.13314538 -1.3606091 3409409
-0.31590647 -0.12765151 -1.3616035 3343619
-0.31783062 -0.12398228 -1.3622072 3015427
-0.34219527 -0.023135349 -1.3881669 8929331
-0.30897194 -0.14979602 -1.3534073 2621953
-0.30963552 -0.14690484 -1.3535279 2753537
-0.31113499 -0.14104319 -1.355137 2752774
-0.3122378 -0.13631074 -1.3554808 2818817
-0.31348675 -0.13137242 -1.3567102 3015425
-0.31477326 -0.12615716 -1.3577197 3080962
-0.3170349 -0.12164071 -1.358611 3080965
-0.31880534 -0.11772865 -1.3583835 3277314
-0.31946748 -0.11484382 -1.3585038 3670529
-0.34179181 -0.026842717 -1.3810108 8207150
-0.34177154 -0.023648668 -1.3836064 8403765
-0.31582427 -0.11997685 -1.3547198 3015169
-0.31678718 -0.11584896 -1.3550285 3277057
-0.3186273 -0.11203587 -1.3556163 3342593
-0.32040197 -0.10741034 -1.3565429 3080706
-0.32168835 -0.10366264 -1.3559071 3212033
-0.33734685 -0.036035452 -1.3736404 6431765
-0.33900356 -0.031569529 -1.3761623 7154747
-0.3395806 -0.026844773 -1.3770835 7286580
-0.3177948 -0.11010067 -1.3525053 3146497
-0.31883562 -0.1059854 -1.3535298 3014913
-0.32080156 -0.10099368 -1.3536963 2950148
-0.32233244 -0.095637038 -1.3547618 3212548
-0.32441527 -0.091280967 -1.3554026 3605252
-0.32566148 -0.086353421 -1.3566294 3278088
-0.32681721 -0.080983847 -1.3561727 3277826
-0.32785577 -0.076877579 -1.357195 3343361
-0.32910204 -0.071950004 -1.3584217 3606017
-0.33014053 -0.06784372 -1.3594441 3868162
-0.3313868 -0.062916145 -1.3606709 4130567
-0.33263302 -0.057988595 -1.3618976 4326409
-0.33367163 -0.053882349 -1.3629199 4589825
-0.33641714 -0.043426979 -1.3664197 5246217
-0.33659875 -0.039429415 -1.3692038 5445130
-0.32031947 -0.098514989 -1.3517947 3211777
-0.32115209 -0.095222771 -1.3526145 3146241
-0.32240111 -0.090284467 -1.3538439 3343105
-0.32365 -0.085346162 -1.3550733 3277569
-0.32460016 -0.080787897 -1.3544108 3146500
-0.32564098 -0.076672614 -1.3554353 3212290
-0.32680851 -0.072256565 -1.3569841 3343617
-0.32813889 -0.06679602 -1.3578943 3606273
-0.3293879 -0.061857637 -1.3591237 3999748
-0.33063686 -0.05691931 -1.3603531 4196613
-0.33251989 -0.052194867 -1.3615351 4524545
-0.33376825 -0.047258969 -1.3627639 4983042
-0.33422101 -0.043148916 -1.3646803 5114626
-0.3171277 -0.12946218 -1.4125965 5970689
-0.31615621 -0.12553167 -1.4144334 6103058
-0.31862003 -0.12126572 -1.4155837 6037786
-0.31923407 -0.11614078 -1.4169062 5972280
-0.31980342 -0.11078879 -1.417381 6433290
-0.32152343 -0.10439114 -1.4198774 6629923
-0.32310802 -0.10217257 -1.420361 6761785
-0.32277924 -0.099425912 -1.4211135 6761505
-0.33068699 -0.067756653 -1.4280944 6499883
-0.33236134 -0.061136309 -1.4297426 7023897
-0.33403569 -0.054515976 -1.4313909 7090213
-0.31633586 -0.12875839 -1.4087451 5771287
-0.31692415 -0.12505953 -1.4101435 5969932
-0.31817847 -0.12010029 -1.4113781 5970704
-0.31964672 -0.11519463 -1.4125849 5841177
-0.31972754 -0.10936147 -1.4138638 6760207
-0.32082206 -0.10466546 -1.4142067 6433058
-0.3237434 -0.10058312 -1.4159706 6497835
-0.32419473 -0.096556574 -1.4174962 6563366
-0.3250106 -0.092368633 -1.4176874 6365731
-0.32539004 -0.086281434 -1.4180608 6166046
-0.3287822 -0.076431513 -1.4211863 5772561
-0.33009237 -0.072094679 -1.4233444 5774355
-0.33199686 -0.067791089 -1.4241047 5775655
-0.33140546 -0.063404486 -1.4257894 6169383
-0.33301812 -0.058952164 -1.426641 6367510
-0.33406299 -0.053695802 -1.4279668 6892302
-0.33552819 -0.048802335 -1.4291714 7548709
-0.3374781 -0.044253636 -1.430027 8206387
-0.33826077 -0.039441917 -1.4296601 8862787
-0.33794796 -0.036628921 -1.4304223 9060427
-0.30607015 -0.16025147 -1.3942232 4983571
-0.30690742 -0.15694129 -1.3950474 4983049
-0.30983758 -0.14535572 -1.3979317 4918815
-0.31088406 -0.14121802 -1.3989618 5117188
-0.312751 -0.13606423 -1.4006687 5248039
-0.31456041 -0.1319901 -1.4030033 5445400
-0.31646365 -0.12806579 -1.4039274 5444631
-0.31737721 -0.12477542 -1.405468 5577230
-0.31873202 -0.11957952 -1.4071221 5840656
-0.32031387 -0.11364678 -1.4093205 6037280
-0.32123095 -0.1098198 -1.4098225 6564116
-0.32256562 -0.10434133 -1.4107355 6234910
-0.32428199 -0.097957596 -1.4132265 6364704
-0.32620078 -0.090102479 -1.4145811 5970217
-0.32660156 -0.086559519 -1.4156435 5838631
-0.32782406 -0.081252038 -1.4174256 5771778
-0.32971185 -0.076488197 -1.4185717 5444628
-0.33096492 -0.07153371 -1.4198052 5444370
-0.33180028 -0.068230718 -1.4206274 5509906
-0.33848339 -0.041806851 -1.427206 8599867
-0.33932942 -0.037818003 -1.4267564 9126982
-0.33904177 -0.034945104 -1.4276218 9389899
-0.3044548 -0.16719213 -1.3876425 4591618
-0.30580169 -0.1636208 -1.3894179 4591114
-0.30690783 -0.1597842 -1.3915765 4852249
-0.30860215 -0.15578693 -1.3925356 4918534
-0.3092075 -0.15069109 -1.3938404 4919809
-0.31110907 -0.14587498 -1.3950033 4852488
-0.31261122 -0.14136711 -1.3962879 5049861
-0.31398427 -0.13626009 -1.3982807 5116191
-0.31523734 -0.13130562 -1.3995142 5248020
-0.3160727 -0.12800264 -1.4003365 5444630
-0.34020764 -0.031771649 -1.4224912 10242124
-0.339935 -0.028527517 -1.4227499 10571346
-0.30122095 -0.17653325 -1.3800313 3541514
-0.30332011 -0.17206469 -1.3819636 3672328
-0.30495322 -0.16782078 -1.3837391 3935235
-0.3061927 -0.16465367 -1.3858018 4263940
-0.3400256 -0.03088278 -1.4191058 10636625
-0.34031934 -0.026828397 -1.4188541 10899804
-0.33963841 -0.022689808 -1.4176276 10702936
-0.29834217 -0.18355173 -1.3721571 3081217
-0.2993772 -0.18015045 -1.3745531 3212801
-0.30195582 -0.17625937 -1.3759453 3278082
-0.30336797 -0.17300712 -1.3774104 3475202
-0.3410055 -0.024595007 -1.4152613 10441815
-0.34064263 -0.020898107 -1.4138176 10637908
-0.29820532 -0.18288364 -1.3696126 3080961
-0.29969686 -0.17969392 -1.3703831 3212289
-0.34123981 -0.019308794 -1.4104606 10571852
-0.34048361 -0.015720271 -1.4112301 10573379
-0.29704875 -0.18463488 -1.3628514 2688257
-0.29776794 -0.18259767 -1.3651658 2818818
-0.29968721 -0.17862135 -1.3661289 2949891
-0.30152315 -0.17507274 -1.3651747 2884609
-0.3415634 -0.017723389 -1.4065127 10245210
-0.34040469 -0.013855651 -1.4068149 10443365
-0.29539222 -0.19010969 -1.3590786 2556679
-0.29658037 -0.18498991 -1.3594066 2622978
-0.29749423 -0.18126145 -1.3600768 2425858
-0.30028719 -0.1774468 -1.3609819 2884868
-0.30155528 -0.17301521 -1.3613589 2819587
-0.34131199 -0.015942384 -1.4007348 9785921
-0.33998173 -0.013270568 -1.4019003 9981993
-0.29647452 -0.18368082 -1.3558599 2425601
-0.29731178 -0.18037066 -1.356684 2425609
-0.29892212 -0.17590925 -1.3559737 2556681
-0.30100918 -0.17145452 -1.3570657 2556678
-0.34012288 -0.015719503 -1.3958436 9521988
-0.2985031 -0.17324169 -1.3530372 2294785
-0.2997461 -0.16914657 -1.352847 2294273
-0.3023656 -0.16503838 -1.3526452 2359809
-0.30320984 -0.1611639 -1.3524075 2556417
-0.33943111 -0.018754214 -1.3896657 8995393
-0.33877569 -0.015439127 -1.3909613 9190460
-0.30053169 -0.16280253 -1.3502144 2031873
-0.3015781 -0.15866479 -1.3512444 2294273
-0.30327225 -0.15327318 -1.3518603 1900801
-0.30451053 -0.14936227 -1.3513854 2425098
-0.30682629 -0.14498816 -1.352227 2753029
-0.30790192 -0.14052072 -1.3528583 2753027
-0.30920208 -0.13505819 -1.3534969 2949889
-0.31045514 -0.13010372 -1.3547305 3015425
-0.31129056 -0.12680072 -1.3555528 3146753
-0.33802265 -0.021105211 -1.3818671 8007992
-0.33814293 -0.017941643 -1.384464 8272959
-0.30360675 -0.14822564 -1.3484218 2687241
-0.3049233 -0.14432774 -1.3486681 2818562
-0.30656826 -0.13945448 -1.3498801 2491137
-0.3080923 -0.1341629 -1.351016 2949889
-0.3099944 -0.12935965 -1.352211 3015169
-0.31161171 -0.12415138 -1.3531209 2949892
-0.31260651 -0.11938544 -1.3524396 2818561
-0.31352353 -0.11555846 -1.3529416 3080449
-0.33440799 -0.032983843 -1.3734996 6300188
-0.33524334 -0.029680867 -1.3743221 6563122
-0.33695966 -0.023297101 -1.3768131 6957865
-0.3365261 -0.02173936 -1.3790054 7419175
-0.30831999 -0.12777628 -1.3494467 2950401
-0.30935538 -0.12339993 -1.3499036 2819862
-0.31158215 -0.11794853 -1.349637 2687489
-0.31359583 -0.11406606 -1.3506082 3015169
-0.31451285 -0.11023909 -1.3511102 3211777
-0.31584758 -0.10476065 -1.3520234 2949633
-0.33322304 -0.033742864 -1.3706026 5839118
-0.33384675 -0.028557409 -1.3718911 6233376
-0.33483833 -0.024771575 -1.373135 6496287
-0.31173176 -0.11206941 -1.3483871 3015169
-0.31256884 -0.10875927 -1.3492112 3080449
-0.31452161 -0.10339323 -1.3489708 2687489
-0.31589013 -0.09880133 -1.3496649 2949633
-0.31716281 -0.093467757 -1.350316 3015681
-0.31841713 -0.088507891 -1.3515508 2949889
-0.31978911 -0.083980218 -1.3528605 3212033
-0.32014209 -0.079924688 -1.3527826 3080965
-0.32203597 -0.075158104 -1.3539764 3080963
-0.3239283 -0.070397481 -1.3551686 3146753
-0.32518131 -0.065443024 -1.356402 3409921
-0.32643443 -0.060488526 -1.3576355 4000513
-0.32768744 -0.055534039 -1.358869 4066305
-0.32894045 -0.050579596 -1.3601024 4327937
-0.32998472 -0.046450842 -1.3611305 4786178
-0.32973224 -0.041527662 -1.3627911 5115396
-0.33120078 -0.037811477 -1.3668791 5117441
-0.33224297 -0.030970376 -1.3685778 5640715
-0.31501609 -0.09666501 -1.3468006 2425601
-0.32087654 -0.073493838 -1.3525693 3015426
-0.3219229 -0.069356143 -1.3535995 3015425
-0.32317871 -0.064390913 -1.3548356 3213825
-0.32570702 -0.059837963 -1.3559859 3935489
-0.3256675 -0.054349091 -1.3568838 3869697
-0.32673681 -0.050322715 -1.3583381 4131329
-0.31876737 -0.096272469 -1.4249685 6894109
-0.31960905 -0.092944354 -1.4257971 6893867
-0.30532652 -0.14779466 -1.4085072 6038297
-0.30658907 -0.14280249 -1.4097501 5906466
-0.30911434 -0.13281813 -1.412236 5840401
-0.30995601 -0.12949002 -1.4130645 5904137
-0.31698012 -0.11029638 -1.418795 6236429
-0.31802088 -0.10610056 -1.4196584 6301956
-0.32054073 -0.096137762 -1.4221388 6761266
-0.31997043 -0.091837168 -1.4231383 6630958
-0.32068819 -0.087056518 -1.4236288 6366247
-0.32868409 -0.063535213 -1.4293491 6830111
-0.32970494 -0.058365609 -1.4317518 7157018
-0.33066642 -0.053808708 -1.4336302 7221795
-0.33166212 -0.048847008 -1.433787 7419962
-0.33193612 -0.04468831 -1.43524 7946552
-0.33226198 -0.041294921 -1.4350218 8274993
-0.30173022 -0.15998758 -1.4009291 5444389
-0.30257207 -0.15665945 -1.4017577 5511463
-0.30525273 -0.14619505 -1.4046658 5577232
-0.3064453 -0.14148024 -1.4058397 5706262
-0.30809808 -0.13701478 -1.4075295 5445138
-0.31007415 -0.13236201 -1.4084098 5575713
-0.31098002 -0.12975785 -1.4104884 5706530
-0.31636804 -0.11101848 -1.4148077 6170371
-0.31807071 -0.10448833 -1.4168869 6564378
-0.32170278 -0.090060383 -1.4203277 6367013
-0.32107878 -0.085645974 -1.4212331 6167321
-0.32262766 -0.080702797 -1.421303 6100743
-0.32367891 -0.076242208 -1.424017 5905940
-0.33018088 -0.055999611 -1.4275988 6498572
-0.33315688 -0.039104391 -1.4324961 8535610
-0.33456069 -0.033500422 -1.4325519 9192526
-0.33451205 -0.029967133 -1.4323909 9520205
-0.30075985 -0.16309428 -1.3948637 4854797
-0.3022511 -0.15962903 -1.3975195 5115168
-0.30379564 -0.15533169 -1.3977711 5115922
-0.30468518 -0.15078014 -1.3986156 5050628
-0.30566555 -0.14610532 -1.4003127 5051150
-0.30746806 -0.14108109 -1.401924 5312776
-0.30891198 -0.13653295 -1.4032216 5313052
-0.33578569 -0.031412538 -1.4282807 9652795
-0.33542031 -0.028111357 -1.4289105 9783361
-0.29440016 -0.18370171 -1.3832145 3869698
-0.29513216 -0.18107755 -1.3844734 3934980
-0.29620445 -0.17689177 -1.3856366 4065805
-0.29870194 -0.17246987 -1.3875369 4197638
-0.299568 -0.16840276 -1.3893945 4656898
-0.30081993 -0.16399243 -1.3917012 5051142
-0.33606666 -0.025712062 -1.4255054 10441810
-0.33559763 -0.021135908 -1.4244142 10573391
-0.29256231 -0.1888608 -1.3772057 3736834
-0.29453075 -0.18515727 -1.3794391 3671562
-0.2963959 -0.18118712 -1.3798991 3409665
-0.29782373 -0.17726333 -1.3824505 3738382
-0.29879159 -0.17363898 -1.3838061 3803938
-0.33669752 -0.020013928 -1.4205023 10638932
-0.33638561 -0.015872296 -1.4209094 10507855
-0.33705336 -0.012624331 -1.4203552 10442840
-0.29120576 -0.192279 -1.3719938 3605249
-0.29330558 -0.18813697 -1.3732122 3212042
-0.29525203 -0.18456049 -1.3741971 3081473
-0.29595143 -0.18203779 -1.3753692 2820097
-0.33740264 -0.018279452 -1.4164411 10638431
-0.3374874 -0.01469937 -1.4161514 10442595
-0.33691579 -0.011952601 -1.4177969 10443095
-0.28992432 -0.19531961 -1.3666941 2818561
-0.29103082 -0.1922524 -1.3683586 3278081
-0.29339391 -0.18757626 -1.3689609 2884097
-0.29483694 -0.18401822 -1.3694367 2950145
-0.33809268 -0.012989968 -1.4120164 10508361
-0.3368364 -0.010077845 -1.4133576 10575437
-0.28930789 -0.19549841 -1.361588 2425345
-0.29228896 -0.19116709 -1.3631313 2622219
-0.29372704 -0.18648541 -1.3645165 2687748
-0.33795542 -0.012319691 -1.4094636 10574420
-0.33662164 -0.0086575598 -1.4086235 10575703
-0.28797048 -0.19842482 -1.355564 2621697
-0.29009587 -0.19470105 -1.3568261 2490881
-0.29213309 -0.18999067 -1.3573734 2228994
-0.29302782 -0.18631849 -1.3579855 2622465
-0.33769423 -0.010117184 -1.4027596 10181947
-0.33622772 -0.0085939579 -1.4050052 10380107
-0.2879737 -0.19695312 -1.3526597 2294529
-0.28932351 -0.19275653 -1.3526059 2032129
-0.29152054 -0.18844755 -1.3529299 2097669
-0.29285103 -0.18360107 -1.3536159 2425347
-0.29422301 -0.17916632 -1.3543267 2687235
-0.33616704 -0.0096597746 -1.3974516 9654074
-0.29005283 -0.18603075 -1.3493222 1769989
-0.29166979 -0.18153843 -1.3494804 2097409
-0.29217225 -0.17700927 -1.3501297 1835521
-0.29445869 -0.17349817 -1.351213 2228993
-0.29596299 -0.16972566 -1.3509355 1966849
-0.33601373 -0.011746943 -1.3911124 8994614
-0.33474386 -0.0087873712 -1.3922379 9062451
-0.2942394 -0.16711336 -1.3487321 1835778
-0.29720712 -0.16312146 -1.3488024 1835526
-0.29850334 -0.15738983 -1.3488694 2163201
-0.29963535 -0.15271182 -1.3495808 1966337
-0.33457404 -0.014366146 -1.3835704 7945025
-0.33429903 -0.011235025 -1.3870798 8469558
-0.29528373 -0.16124158 -1.3462874 1966346
-0.29734063 -0.15629262 -1.3455176 2294273
-0.2995801 -0.15151471 -1.3467059 2425089
-0.30058426 -0.1471401 -1.3468885 2556163
-0.30205411 -0.1413285 -1.3483354 2884353
-0.30331403 -0.13634707 -1.3495756 2491393
-0.33223498 -0.018324804 -1.3798664 7418923
-0.33249712 -0.016064558 -1.3807331 7484211
-0.33332473 -0.011156242 -1.38438 7879986
-0.29664451 -0.15375385 -1.3434273 2097666
-0.29748625 -0.15042573 -1.3442558 2359810
-0.29919147 -0.14531697 -1.3446196 2556180
-0.30054384 -0.14221087 -1.3458476 2818308
-0.3008073 -0.13688931 -1.3467175 2294785
-0.30288905 -0.13187741 -1.3470578 2884353
-0.30470276 -0.12712152 -1.3471564 3015169
-0.30639911 -0.12172277 -1.3477771 2753037
-0.33159667 -0.022094682 -1.3725809 6299154
-0.3316316 -0.019091729 -1.3760464 6629405
-0.30331367 -0.12495339 -1.3451464 2818305
-0.30431992 -0.12056935 -1.3453293 2818305
-0.30646652 -0.11602661 -1.3461641 2556161
-0.30690551 -0.11204089 -1.3460293 2621955
-0.30952984 -0.10732189 -1.3468297 2818565
-0.31032401 -0.10377756 -1.3468055 2621953
-0.32664019 -0.035587911 -1.3646781 4987403
-0.32823271 -0.031444851 -1.3666208 5314568
-0.3287012 -0.027189154 -1.3680377 5774093
-0.3308751 -0.024138544 -1.3702589 6167314
-0.30745757 -0.10613734 -1.3443798 1966851
-0.30944318 -0.10046756 -1.3445883 2425089
-0.31118292 -0.096199006 -1.344539 2490881
-0.31222415 -0.091016471 -1.3463421 2753537
-0.31321388 -0.087054551 -1.3482348 2426625
-0.31378132 -0.082442224 -1.3495572 2818817
-0.31530923 -0.078012779 -1.3500947 2884368
-0.3162666 -0.073083341 -1.3504982 2884105
-0.31896013 -0.068014026 -1.352083 3015426
-0.32021999 -0.063032627 -1.3533231 3147777
-0.32147986 -0.058051188 -1.3545635 3606785
-0.32082063 -0.053924482 -1.3542063 3343617
-0.32202345 -0.049574021 -1.356198 4000001
-0.3239345 -0.04466686 -1.3587878 4656903
-0.32408184 -0.040407073 -1.3607442 5182490
-0.30975503 -0.094297618 -1.3411496 3998981
-0.31713146 -0.091215059 -1.4278101 6959915
-0.31699896 -0.086142629 -1.4287149 7025698
-0.31927913 -0.082113519 -1.4287089 6894867
-0.30283922 -0.14548856 -1.4092849 5907999
-0.30385518 -0.14174296 -1.4108253 5907748
-0.30499631 -0.13736597 -1.4122187 5972775
-0.30599695 -0.13354546 -1.4134736 5973014
-0.30668533 -0.13068822 -1.4138812 5906453
-0.31728703 -0.089176774 -1.4251275 6695980
-0.31821412 -0.085308164 -1.4256349 6432798
-0.31925851 -0.080893829 -1.4260958 6233362
-0.32015067 -0.077041402 -1.4263258 6167845
-0.29453439 -0.168194 -1.3992008 5514261
-0.29656702 -0.1642057 -1.4001311 5642763
-0.29873604 -0.160899 -1.4036254 6106139
-0.29910344 -0.15417784 -1.4026284 5579798
-0.30044514 -0.15078232 -1.4038374 5445892
-0.30217779 -0.14661257 -1.4056631 5576976
-0.30342025 -0.14210714 -1.4076962 5577501
-0.31963634 -0.078261554 -1.4241991 5840913
-0.32998103 -0.03736021 -1.434382 8536633
-0.33082545 -0.034021329 -1.4352132 8864070
-0.33101577 -0.028000247 -1.4340417 9520466
-0.3306666 -0.024924491 -1.4339563 9782360
-0.2906611 -0.18106405 -1.3905162 4789522
-0.29328179 -0.17651074 -1.3924857 4852765
-0.29349202 -0.1732153 -1.3931131 4655896
-0.29486614 -0.16778198 -1.3944659 5051143
-0.2956841 -0.16404399 -1.3965514 4789514
-0.33240336 -0.024936378 -1.4310949 9783647
-0.33180577 -0.021868479 -1.4306524 9981526
-0.33165926 -0.018554688 -1.4300615 10049103
-0.29018855 -0.18818963 -1.3822477 3934985
-0.29045498 -0.18511111 -1.3845688 4066057
-0.29151756 -0.1815879 -1.3869656 4132359
-0.29264432 -0.17713247 -1.3880749 4262925
-0.2941727 -0.17406315 -1.3894105 4458505
-0.33280665 -0.021309074 -1.4274408 10377554
-0.3332352 -0.016484331 -1.4268492 10311503
-0.33286357 -0.011348363 -1.4263752 10377543
-0.28540701 -0.19654094 -1.3747885 3474197
-0.28687447 -0.19297126 -1.3761117 3672077
-0.28964359 -0.18926004 -1.3795507 3934469
-0.33396232 -0.013893574 -1.4229066 10443590
-0.33342499 -0.0098163337 -1.423077 10442829
-0.33385628 -0.0049785636 -1.4224805 10377287
-0.28395319 -0.20065957 -1.3701094 3343423
-0.28531551 -0.19722289 -1.3716797 3212297
-0.28800297 -0.19337535 -1.3732094 3408647
-0.33474177 -0.0083721653 -1.4188125 10508114
-0.33350641 -0.0051397532 -1.4197 10377554
-0.28437132 -0.20046273 -1.366111 2688268
-0.28619891 -0.19722722 -1.3675086 2949892
-0.33464032 -0.006943956 -1.4150665 10772034
-0.33417439 -0.0035473518 -1.4151356 10903119
-0.28259963 -0.20152934 -1.3598453 2818305
-0.28426844 -0.19940171 -1.3612578 2818313
-0.28619355 -0.19666706 -1.3637309 2687494
-0.33444673 -0.0050665066 -1.4096094 10639969
-0.33383387 -0.0020713024 -1.4103953 10772314
-0.28097081 -0.20572859 -1.3537761 2556419
-0.28239411 -0.20301537 -1.3548925 2425345
-0.2844761 -0.200408 -1.3559636 2490881
-0.33347696 -0.0049975179 -1.4045322 10244943
-0.33281463 -0.0017630011 -1.4068394 10507859
-0.17283076 -0.63024557 -1.2412363 3086376
-0.28065747 -0.20513383 -1.3498137 2294273
-0.2819286 -0.20105618 -1.3499086 1966594
-0.28392845 -0.19760478 -1.3507466 1835791
-0.28500915 -0.19321659 -1.3509265 2163210
-0.3324253 -0.0054665692 -1.3985835 9654595
-0.28254265 -0.19564307 -1.3476095 2228754
-0.28404319 -0.1910122 -1.3480256 2031875
-0.28559273 -0.18656749 -1.3474195 1835265
-0.28656358 -0.18259364 -1.348105 2031873
-0.33235174 -0.0060314126 -1.3929628 9129536
-0.3308996 -0.003630463 -1.3935868 9129548
-0.28705925 -0.1794133 -1.3461605 1901057
-0.28836066 -0.17475596 -1.3465875 1966849
-0.28961819 -0.17092496 -1.3473569 2228993
-0.29090834 -0.16745435 -1.3473059 1508353
-0.33097261 -0.0053777881 -1.3885765 8536880
-0.33071518 -0.0027300194 -1.3901571 8735537
-0.28800541 -0.16996942 -1.344867 2228481
-0.28934425 -0.16562626 -1.3450332 1966596
-0.29104632 -0.16059598 -1.3440015 2097412
-0.32957834 -0.012389295 -1.3810501 7351865
-0.3290596 -0.0092761666 -1.3824358 7351604
-0.32926124 -0.0068486556 -1.3854781 7812660
-0.29043299 -0.15751889 -1.3415729 2032129
-0.29190344 -0.15425365 -1.3412451 1901313
-0.2934348 -0.14891332 -1.3418912 2425090
-0.29457408 -0.1442056 -1.3426075 2490638
-0.2967906 -0.13958861 -1.3439134 2818305
-0.29774517 -0.13554348 -1.344313 2753281
-0.32690954 -0.01635493 -1.3744376 6235154
-0.3276068 -0.013391864 -1.3777601 6759453
-0.32771516 -0.010517068 -1.3790842 6821932
-0.29147184 -0.15137421 -1.3385355 2556417
-0.29231811 -0.14802815 -1.3393686 2490881
-0.29423863 -0.14315435 -1.3405864 2163204
-0.29464537 -0.13882644 -1.3416595 2687489
-0.29675764 -0.13401121 -1.341647 2228737
-0.29796201 -0.12943135 -1.3421799 2425345
-0.30000776 -0.1247384 -1.3428364 2491137
-0.30126911 -0.11917073 -1.3429205 2884354
-0.30211359 -0.11583182 -1.3437517 2753025
-0.32417983 -0.024502531 -1.3664787 5577734
-0.32567382 -0.021040715 -1.369776 6037260
-0.3255344 -0.016695015 -1.3720655 5970439
-0.29584968 -0.13162017 -1.3379731 3081217
-0.29677552 -0.12741624 -1.3378018 3475201
-0.29851544 -0.12283057 -1.3388636 3344385
-0.29982942 -0.11823314 -1.3397168 3475202
-0.301817 -0.1140161 -1.3405523 3408897
-0.30255008 -0.10975644 -1.3416075 3015169
-0.30409402 -0.10460654 -1.3419837 3015425
-0.30538672 -0.10072175 -1.3426523 2949377
-0.30922645 -0.085268766 -1.345892 2687489
-0.31019944 -0.081624836 -1.3472549 2818561
-0.31175989 -0.075252101 -1.3483858 2753041
-0.31323767 -0.069409028 -1.3498404 2425613
-0.31408209 -0.066070154 -1.3506718 3015436
-0.3153488 -0.061061841 -1.3519187 3081729
-0.31640434 -0.056888226 -1.3529577 3278081
-0.31893778 -0.046871547 -1.3554513 4264705
-0.3193596 -0.042480368 -1.3565339 4657925
-0.32070345 -0.037844662 -1.359207 4985889
-0.32103127 -0.033688817 -1.3614472 5052674
-0.321661 -0.029565085 -1.363381 5184522
-0.32250732 -0.026219044 -1.3642142 5315332
-0.30107379 -0.10852002 -1.3382437 3998978
-0.30448991 -0.10318339 -1.339609 3999235
-0.30485487 -0.098609418 -1.3398226 4129537
-0.3062979 -0.095221624 -1.3397683 4850945
-0.30803269 -0.088768438 -1.3422863 4000265
-0.30812597 -0.08431451 -1.3433757 3736833
-0.30854124 -0.0799485 -1.3444496 3539714
-0.31056744 -0.075559542 -1.3457416 3278338
-0.31200403 -0.069878906 -1.3471551 3474439
-0.31207532 -0.065021142 -1.3490732 3343126
-0.31313318 -0.060838554 -1.3501146 3279105
-0.31503725 -0.053309936 -1.3519889 3672065
-0.31672984 -0.046617795 -1.3536549 4394497
-0.30342811 -0.097581342 -1.3373132 4720129
-0.30977517 -0.072485834 -1.3435612 4197380
-0.3104099 -0.069976285 -1.3441858 4327425
-0.28896886 -0.16954474 -1.398261 4922652
-0.29301804 -0.16326867 -1.4033651 6433294
-0.32744229 -0.026886407 -1.4367083 9325392
-0.32710671 -0.022134021 -1.4364488 9587791
-0.28489369 -0.18968686 -1.3885688 4525849
-0.28652686 -0.18543023 -1.3899932 4721941
-0.28721946 -0.18072735 -1.3919832 4984857
-0.28730935 -0.177169 -1.3926522 4918301
-0.29040569 -0.17114498 -1.395906 4788002
-0.29083019 -0.16946651 -1.3963239 4921878
-0.3286106 -0.020087246 -1.4335136 9850451
-0.32883257 -0.016077746 -1.4327129 9916751
-0.32846636 -0.010918938 -1.4322431 10377793
-0.27862817 -0.20551504 -1.3782859 4066831
-0.27963167 -0.20195688 -1.3800901 4394247
-0.2805025 -0.19837725 -1.3806752 4262913
-0.28164309 -0.19392207 -1.3819069 4264707
-0.28409857 -0.18933779 -1.384091 4264198
-0.28609532 -0.1857349 -1.3867755 4460047
-0.28800559 -0.17818204 -1.3886558 4263693
-0.32960659 -0.01369695 -1.4296066 10246478
-0.33029658 -0.010314438 -1.4289824 10508867
-0.32906073 -0.0069299862 -1.4295628 10376757
-0.16991752 -0.63329577 -1.2671928 4008505
-0.17029655 -0.63138753 -1.2667495 3877199
-0.27889788 -0.20496824 -1.3734934 3475975
-0.27989179 -0.2009643 -1.3751956 3607307
-0.28151649 -0.19748816 -1.3769236 3738373
-0.2821793 -0.19357248 -1.3786508 3869446
-0.28433204 -0.1902543 -1.3801521 4065793
-0.33060247 -0.0073065981 -1.4256994 10377525
-0.32986158 -0.0042828731 -1.4252933 10375208
-0.16973203 -0.63239044 -1.2637448 3875110
-0.17037016 -0.62986743 -1.2643732 3417146
-0.17181271 -0.62375414 -1.2649767 4138026
-0.27518672 -0.21502593 -1.366735 3605505
-0.27667564 -0.20913889 -1.3682005 3278849
-0.27811497 -0.20521045 -1.3700835 3212293
-0.28095371 -0.20095488 -1.3715318 3539999
-0.32925969 -0.0016370565 -1.4207791 10705490
-0.32968515 4.4956803e-05 -1.4211979 11034453
-0.16690141 -0.64112467 -1.2560605 3743028
-0.16749316 -0.63837528 -1.2558267 3416367
-0.16959298 -0.63171148 -1.2611589 4071973
-0.17050385 -0.62770069 -1.2612393 3745854
-0.17145699 -0.62352163 -1.2613614 3679292
-0.17217273 -0.61987317 -1.2604331 3745858
-0.27320689 -0.22039598 -1.3598881 3212033
-0.27402085 -0.21779197 -1.3619138 3212039
-0.27500111 -0.2141206 -1.3632871 3211784
-0.27627736 -0.20907457 -1.3645432 3081219
-0.27843267 -0.20416313 -1.365734 2819329
-0.28047341 -0.20142326 -1.3682079 3146515
-0.3291207 -0.00095807388 -1.4181932 11098710
-0.32945341 0.001176592 -1.416888 11230558
-0.16666967 -0.63999307 -1.2517507 3481137
-0.16730762 -0.63746995 -1.2523788 3219236
-0.16917574 -0.62967467 -1.2534012 3743523
-0.17049831 -0.62485486 -1.2555195 3286831
-0.17113632 -0.62233192 -1.2561476 3220254
-0.17219985 -0.61812681 -1.2571946 3351093
-0.17341125 -0.61323446 -1.258183 3351593
-0.174447 -0.60842317 -1.2577738 3613470
-0.27280861 -0.2203317 -1.3562307 2949633
-0.27365941 -0.2169677 -1.3570683 3014918
-0.27516371 -0.21282601 -1.3580862 2949388
-0.27732038 -0.2079116 -1.3592834 2753039
-0.27886343 -0.20347482 -1.3606373 2687233
-0.32969922 0.0032522008 -1.411884 11034471
-0.16639149 -0.6386351 -1.2465788 3544616
-0.16717738 -0.63542473 -1.2471485 3217958
-0.1685527 -0.62985539 -1.24824 3415073
-0.16978306 -0.62512243 -1.2497135 3351589
-0.1708582 -0.62097394 -1.2509758 3155225
-0.17192167 -0.61676884 -1.2520226 3220000
-0.17319793 -0.61172289 -1.253279 3285023
-0.17426139 -0.6075179 -1.2543259 3415591
-0.2726233 -0.21942639 -1.3527828 2556419
-0.27344245 -0.21553206 -1.3522831 2425097
-0.27510625 -0.21150063 -1.352903 2687233
-0.27746707 -0.20775095 -1.3541701 2490630
-0.32918733 -0.0022739843 -1.4031268 10047818
-0.33015275 0.00088931993 -1.4053806 10377034
-0.32902652 0.0041997656 -1.4070801 10639948
-0.1683293 -0.63665223 -1.2415248 3086383
-0.16896611 -0.63413453 -1.2421516 3348526
-0.16980672 -0.62926501 -1.2435548 3021095
-0.16987342 -0.62403709 -1.2446957 3218219
-0.17058003 -0.61961597 -1.245804 3219490
-0.17151046 -0.61626482 -1.2473729 2956321
-0.17298931 -0.61070448 -1.2494 3350067
-0.17397422 -0.60674208 -1.2502334 3283001
-0.17632312 -0.59690881 -1.2514572 3416883
-0.17764568 -0.59208924 -1.2535754 3021845
-0.27340865 -0.21386343 -1.3486578 2228741
-0.27504873 -0.2101756 -1.3477231 2621701
-0.27721888 -0.20578921 -1.3480607 2490627
-0.27818209 -0.20149001 -1.3480313 2228481
-0.32900232 -0.0013706386 -1.3996863 9720383
-0.32860446 0.00248079 -1.400671 9851448
-0.32861882 0.0052503906 -1.4013726 10048574
-0.16809803 -0.63552302 -1.2372242 2888475
-0.16798568 -0.63279265 -1.2380991 2952980
-0.16861087 -0.62836498 -1.2384721 2757909
-0.16949743 -0.6218484 -1.2406566 3285549
-0.17039472 -0.61871076 -1.2423561 3874332
-0.17098647 -0.61596131 -1.2421223 3021327
-0.27456075 -0.20868099 -1.3439716 2556164
-0.27620274 -0.20401897 -1.3446656 2490625
-0.27846783 -0.19913408 -1.3458689 2228482
-0.27969497 -0.19387294 -1.3462622 2097665
-0.328771 -0.00024140254 -1.3953857 9325639
-0.32821673 0.0036736876 -1.3963809 9455423
-0.32838708 0.0063820593 -1.3970627 9455671
-0.16786665 -0.63439381 -1.2329236 2887463
-0.16699296 -0.63151288 -1.2336544 3215387
-0.16773504 -0.62687063 -1.235044 2823194
-0.16893297 -0.62285149 -1.2376518 2825499
-0.27422124 -0.20655414 -1.3412944 2556161
-0.27515525 -0.20265651 -1.3418057 2294273
-0.27669555 -0.19776127 -1.341642 2162954
-0.27863079 -0.19282523 -1.3428645 2162949
-0.27991253 -0.18866219 -1.3438989 1966337
-0.2805993 -0.18418013 -1.3441007 1900801
-0.28223747 -0.17953555 -1.3447952 1901057
-0.2836625 -0.17573375 -1.3452801 2163457
-0.32819813 -0.00025812164 -1.3903415 8735539
-0.32719594 0.0036043823 -1.3920418 8865333
-0.16611129 -0.63100338 -1.2288879 3345696
-0.16716588 -0.62738055 -1.2310145 3148833
-0.27777165 -0.19005814 -1.3398914 2228481
-0.27819711 -0.18837613 -1.3403101 2097409
-0.27947336 -0.18333012 -1.3415663 2031873
-0.28096783 -0.17772257 -1.3413541 2490625
-0.283683 -0.1731115 -1.3422678 2097415
-0.28503495 -0.16818136 -1.3423953 2294020
-0.28614414 -0.16346899 -1.3428354 2163201
-0.32583481 -0.0065368153 -1.3819057 7087154
-0.32564461 -0.0029088482 -1.384415 7416630
-0.32584274 8.9108944e-06 -1.3872111 8076598
-0.16561151 -0.63106859 -1.2245862 3084299
-0.28089684 -0.17524415 -1.3380697 2621697
-0.28165483 -0.17142746 -1.3371832 2228483
-0.28336793 -0.16646612 -1.3384188 2752769
-0.28464943 -0.16230585 -1.3394547 1835521
-0.28632504 -0.1586711 -1.3400999 1966337
-0.32354552 -0.010688681 -1.3759816 6298900
-0.32388204 -0.0067959875 -1.3781713 6367252
-0.28189486 -0.16884016 -1.334154 3408641
-0.28269917 -0.16524982 -1.3341296 3605761
-0.28380924 -0.16127113 -1.3360385 2688001
-0.28515333 -0.15690708 -1.3362088 3146241
-0.28795165 -0.15213262 -1.3362651 3015937
-0.28924352 -0.14671816 -1.3369259 2884865
-0.29051691 -0.14168292 -1.3381793 2294786
-0.29109019 -0.13737558 -1.3392464 2883841
-0.29234099 -0.13433449 -1.3397034 2491137
-0.32103461 -0.02061088 -1.3674055 5709070
-0.3205142 -0.015324682 -1.370537 5905420
-0.32246476 -0.010741852 -1.3726007 5840139
-0.32294667 -0.0065262876 -1.3745642 5643540
-0.28804344 -0.1502367 -1.3333007 4066305
-0.28910464 -0.14604065 -1.3343455 3869698
-0.28842324 -0.14057004 -1.3356824 3737858
-0.28948671 -0.13636506 -1.3367293 3671041
-0.29157966 -0.13249788 -1.3366066 3475457
-0.29325718 -0.12880477 -1.3368039 3541761
-0.31872708 -0.0280996 -1.3618757 5052418
-0.31860965 -0.022358254 -1.3640164 5249540
-0.31905252 -0.019465409 -1.3658329 5381129
-0.32129949 -0.0097617246 -1.3664122 4983819
-0.29337686 -0.12751386 -1.3352925 4197889
-0.29465038 -0.1224786 -1.3365461 4394753
-0.2965607 -0.11492574 -1.3384265 4262660
-0.29710484 -0.11195645 -1.3373328 4590081
-0.29725701 -0.10686034 -1.337665 4261127
-0.2987799 -0.10267732 -1.3382583 4391939
-0.30698806 -0.072061896 -1.3454325 3541506
-0.30741256 -0.070383474 -1.3458503 3606529
-0.3079409 -0.064208642 -1.3473674 3670801
-0.30804646 -0.059705038 -1.3484682 3475201
-0.3105244 -0.055301268 -1.3506886 3672321
-0.31159878 -0.050154481 -1.3517827 3934210
-0.31267411 -0.045003723 -1.3528776 4526082
-0.31441176 -0.041075159 -1.3540533 4789249
-0.31436509 -0.036493529 -1.355172 4787719
-0.3160035 -0.031785872 -1.3572665 4855308
-0.3167401 -0.026970152 -1.3602912 4986388
-0.30668741 -0.066437513 -1.3437458 4852227
-0.30732292 -0.063380644 -1.3448094 4656647
-0.30769461 -0.059867103 -1.345673 4526081
-0.31369239 -0.039286811 -1.3517299 5051137
-0.31602228 -0.035524223 -1.3526963 4854017
-0.31581861 -0.030880395 -1.3538227 4986113
-0.2843309 -0.17573413 -1.396906 5048091
-0.28497106 -0.17320302 -1.3975363 4786722
-0.32190615 -0.020714592 -1.439317 9390914
-0.32387328 -0.016858179 -1.4386225 9522497
-0.32369083 -0.01242258 -1.4386119 9719879
-0.16255802 -0.64664018 -1.2742525 3811101
-0.2761063 -0.19768363 -1.3860261 5049354
-0.27856863 -0.19423187 -1.3872629 4919057
-0.27983069 -0.19147286 -1.3883815 4657688
-0.32568258 -0.011083655 -1.4353184 10048071
-0.32523006 -0.0064295381 -1.4342194 10245944
-0.16252428 -0.64512604 -1.2709368 3810083
-0.16382176 -0.639584 -1.2713933 3156778
-0.1656366 -0.63557005 -1.2721677 3681071
-0.16604376 -0.63059258 -1.2731701 3877428
-0.27661079 -0.20214933 -1.381117 4589829
-0.27781075 -0.19795233 -1.3833903 4655876
-0.27881432 -0.19405298 -1.3845147 4722952
-0.27969116 -0.19079168 -1.3857872 4461839
-0.32582265 -0.0035183877 -1.430622 10179637
-0.16230577 -0.64351928 -1.2657974 3612190
-0.1633749 -0.63929176 -1.2668499 3417122
-0.16661191 -0.63488019 -1.2684697 3877679
-0.16646224 -0.62978965 -1.269186 4073266
-0.16666287 -0.62574238 -1.2689923 3810851
-0.16991067 -0.61262655 -1.2716421 3613742
-0.17033833 -0.61093551 -1.2720633 3810864
-0.17140764 -0.60670805 -1.2731155 4008272
-0.27084249 -0.21355408 -1.3709964 3868417
-0.271828 -0.20986319 -1.3723768 3737365
-0.27362186 -0.20636745 -1.3752173 3672838
-0.27621132 -0.20208487 -1.3774481 3935237
-0.32678348 -0.0021286123 -1.4272298 10375434
-0.32635134 0.0014521889 -1.4254029 10573648
-0.16288191 -0.64251184 -1.2615844 3612453
-0.16433078 -0.63824177 -1.2622612 3416606
-0.16599268 -0.63499957 -1.2632196 3678736
-0.16791314 -0.6274063 -1.2651101 3744049
-0.16775328 -0.62325025 -1.266379 4007209
-0.16814381 -0.61817127 -1.2670305 3680292
-0.16947019 -0.61299533 -1.2684729 3613986
-0.17032552 -0.60961342 -1.2693148 3745571
-0.26835042 -0.22217193 -1.3660811 3670802
-0.27053446 -0.2184895 -1.3671333 3736580
-0.2725181 -0.21422172 -1.3688989 3802369
-0.27345508 -0.21031153 -1.3694118 3606025
-0.32659239 0.0040505156 -1.4223608 10837587
-0.32630074 0.0069564991 -1.4231257 10707014
-0.1639728 -0.64147919 -1.2582285 3481387
-0.16497165 -0.63708502 -1.2583244 3284521
-0.16609925 -0.63228828 -1.2587619 3613483
-0.16733724 -0.62742317 -1.260039 3614022
-0.16879398 -0.6222797 -1.2627014 4400453
-0.1692751 -0.61834496 -1.2631862 3614524
-0.17021555 -0.61299956 -1.2641209 3810874
-0.17070198 -0.60840625 -1.265023 3679528
-0.17149228 -0.60398161 -1.2664009 3745068
-0.17284691 -0.59901762 -1.2668922 3876642
-0.17395192 -0.59404296 -1.2678181 3745836
-0.17471665 -0.59074187 -1.2706281 3942206
-0.2668435 -0.22552201 -1.3593999 3081473
-0.26935285 -0.22234374 -1.3615983 3277829
-0.27079189 -0.21899235 -1.3631049 3408388
-0.32667047 0.0050626285 -1.41799 11035235
-0.32606763 0.0080942065 -1.4187928 10838614
-0.16484088 -0.63503313 -1.2530775 3153950
-0.16592109 -0.63087952 -1.2543746 3482155
-0.16676134 -0.6274398 -1.2549677 3417898
-0.17094874 -0.61143118 -1.2601817 3548718
-0.1711241 -0.60724592 -1.2602496 3482658
-0.17194396 -0.60243404 -1.2612282 3155746
-0.17386454 -0.59800059 -1.2623073 3680539
-0.17478079 -0.59302282 -1.2635564 3680031
-0.17543715 -0.58866197 -1.2637295 3614243
-0.2653923 -0.22851446 -1.3525002 3409153
-0.26700443 -0.22567287 -1.3550336 2950657
-0.2691859 -0.22246522 -1.3557914 2753281
-0.32722658 0.0070204511 -1.4129249 10838367
-0.32631356 0.010076251 -1.4133662 10707536
-0.32655007 0.013296351 -1.4127021 10707024
-0.16465485 -0.63412499 -1.2496184 3349525
-0.16529506 -0.63159394 -1.2502486 3875357
-0.16657525 -0.62653172 -1.2515088 3614502
-0.17181695 -0.60498524 -1.2550305 3087899
-0.17288375 -0.60076666 -1.2560809 3154995
-0.17395073 -0.59654826 -1.2571311 3417352
-0.17478353 -0.59185207 -1.2584771 3352334
-0.17524475 -0.58709192 -1.258896 3810851
-0.17487276 -0.58394694 -1.2584715 3613506
-0.26676553 -0.22387803 -1.3502108 2688001
-0.26896173 -0.21948919 -1.3504848 2163971
-0.27009422 -0.2155866 -1.3501339 2097933
-0.32675821 0.0077986047 -1.4072225 10510667
-0.326105 0.010945179 -1.4088721 10378572
-0.16871732 -0.61436397 -1.2462469 3021351
-0.16997433 -0.6091882 -1.2470747 3349560
-0.17136616 -0.60419893 -1.2494684 3152940
-0.17248267 -0.5998866 -1.2507725 3220288
-0.17367166 -0.59518588 -1.2519428 3153180
-0.17465514 -0.59007472 -1.2527587 3021332
-0.17510813 -0.58625412 -1.2547091 3350051
-0.17468631 -0.5830369 -1.2550051 3479614
-0.26630247 -0.22162125 -1.3468306 2294529
-0.26750666 -0.21784419 -1.3459153 2359811
-0.26966256 -0.2138572 -1.3465177 2490628
-0.3261438 0.0090271346 -1.402375 9981768
-0.32527524 0.011962138 -1.404061 10047828
-0.16524702 -0.62664658 -1.2399645 2891559
-0.16677779 -0.61997819 -1.240243 3611670
-0.16720444 -0.61829084 -1.2406628 3349250
-0.16833192 -0.61302185 -1.242768 3085848
-0.16886586 -0.60753882 -1.2444079 3283485
-0.16965657 -0.60289961 -1.2454364 3218966
-0.1716401 -0.59844959 -1.2465327 3481370
-0.17268085 -0.59370977 -1.24753 3217962
-0.17339057 -0.58960462 -1.2492958 3217695
-0.26730585 -0.21518311 -1.3428943 3014913
-0.26811457 -0.21157357 -1.3428696 2621697
-0.27090937 -0.20825398 -1.3427469 2752769
-0.32528859 0.010414634 -1.3981224 9456942
-0.16510707 -0.62439197 -1.2342305 2757388
-0.16537827 -0.62070978 -1.2361506 2695222
-0.16600138 -0.61620921 -1.2372756 2890272
-0.16666633 -0.61152548 -1.2388628 2824469
-0.16780514 -0.60612637 -1.2400244 3284521
-0.16908807 -0.60105342 -1.2412875 3219490
-0.17018741 -0.59761202 -1.2421417 3153947
-0.17128247 -0.59287143 -1.2444323 3021851
-0.17228645 -0.58895624 -1.2455302 3087123
-0.26822877 -0.20961197 -1.3399727 2621697
-0.27008086 -0.20646214 -1.3391451 2490625
-0.27186245 -0.20234862 -1.3394265 1835265
-0.32487649 0.0071804188 -1.3917756 8668481
-0.32494015 0.0097362697 -1.3933386 8668208
-0.16335481 -0.62890959 -1.2277011 3149080
-0.16401106 -0.62487316 -1.230044 2954011
-0.16372281 -0.62020755 -1.2319026 2824480
-0.16504705 -0.61479557 -1.2328544 3086884
-0.16648734 -0.60977149 -1.2335769 3216420
-0.16777009 -0.60469937 -1.2348397 3217437
-0.27026111 -0.19937986 -1.3375964 2359553
-0.27235365 -0.19566689 -1.3377761 2162951
-0.2733112 -0.19070895 -1.3382119 2228482
-0.27447528 -0.18569523 -1.3385377 2031873
-0.2764672 -0.18184081 -1.3393732 2097409
-0.27717954 -0.17853105 -1.3390915 1966337
-0.32242459 0.0029654317 -1.3857534 7617314
-0.32274598 0.0056970939 -1.388034 8077605
-0.16079479 -0.6310721 -1.2215062 3020298
-0.16245013 -0.62779438 -1.2235535 2955032
-0.16328913 -0.6240977 -1.2248425 3020063
-0.16515392 -0.61207837 -1.2283872 2890259
-0.16602796 -0.60831445 -1.2286319 2888724
-0.16724581 -0.60339594 -1.2296257 2890515
-0.27383059 -0.18279584 -1.3361859 2359809
-0.27451229 -0.1798258 -1.3363098 2294273
-0.2768566 -0.17583339 -1.336076 2490625
-0.3208577 -0.0033671483 -1.3771734 5909505
-0.32159096 -0.0012901351 -1.3795331 6300188
-0.32120925 0.0032151155 -1.3808804 6169631
-0.16000265 -0.63038713 -1.2192129 3086870
-0.16107178 -0.62615967 -1.2202654 2826020
-0.16620392 -0.60586786 -1.2253172 2888978
-0.27766103 -0.1733399 -1.333014 3604737
-0.27797925 -0.16995637 -1.3327473 3867652
-0.28076875 -0.16023034 -1.3344352 3868161
-0.31673771 -0.017191429 -1.3682041 5709327
-0.31801802 -0.012129214 -1.3694644 5575189
-0.31887162 -0.0087544061 -1.3703046 5509640
-0.32027924 -0.0037755556 -1.3728602 5051139
-0.32088882 2.8830022e-05 -1.3752507 5117697
-0.32041854 0.004496213 -1.3758905 4985608
-0.3164404 -0.016997024 -1.3651816 5183749
-0.31601781 -0.012989633 -1.3671585 5247241
-0.31792033 -0.0074052699 -1.3683238 5048841
-0.31898779 -0.0031849928 -1.3693745 4392707
-0.31986403 0.00088578835 -1.3720764 3933953
-0.320409 0.0054878369 -1.3738292 4327941
-0.30645692 -0.053730983 -1.3498944 3869697
-0.308164 -0.046981413 -1.3515749 4393486
-0.3131271 -0.025045164 -1.3579438 4985372
-0.3134194 -0.0206521 -1.3603115 5181956
-0.3139835 -0.016520228 -1.3607335 5182721
-0.31542486 -0.011747867 -1.363999 4986113
-0.30546385 -0.056424636 -1.3464601 4528385
-0.30631739 -0.053049881 -1.3473003 4790017
-0.30764419 -0.04821473 -1.3494253 4525070
-0.30871111 -0.043996248 -1.3504755 4852743
-0.30971605 -0.039475005 -1.3503728 5116417
-0.15653205 -0.65154117 -1.2854474 3807281
-0.15758461 -0.64717239 -1.2860705 3678261
-0.15885228 -0.64195257 -1.2869056 3223084
-0.16014355 -0.63684732 -1.2881765 3614006
-0.16105121 -0.63367277 -1.289896 3745087
-0.16203982 -0.62962568 -1.2905939 3679005
-0.15760034 -0.65027004 -1.2814145 4070200
-0.1576097 -0.64634013 -1.2818923 3612972
-0.15844947 -0.64188749 -1.2832054 3286039
-0.15956759 -0.6373632 -1.2840995 3549238
-0.16212267 -0.63268846 -1.2856804 4072755
-0.16319424 -0.62782079 -1.2862601 3875110
-0.16304952 -0.62314659 -1.2866323 3875374
-0.16524208 -0.61420149 -1.28824 3090988
-0.31930918 -0.010193545 -1.441031 9588794
-0.15916592 -0.64913517 -1.2765782 3810093
-0.15888506 -0.64513665 -1.2770889 3614254
-0.16042757 -0.64014322 -1.2776775 3680045
-0.16007972 -0.63654679 -1.2791777 3810369
-0.16345137 -0.63167417 -1.2797678 3875906
-0.16413206 -0.62673855 -1.2814493 3809827
-0.16385204 -0.62127972 -1.2825453 3745075
-0.16419363 -0.61668909 -1.2839042 3811862
-0.16520423 -0.61259019 -1.2846924 3483694
-0.16621143 -0.60815853 -1.2847891 3679795
-0.27410161 -0.19427982 -1.3888943 5115659
-0.32058591 -0.0048227459 -1.4370751 10114871
-0.31968993 -0.0010465309 -1.435318 10048836
-0.15982723 -0.64383477 -1.2718779 3417388
-0.16107726 -0.63951218 -1.2743434 3417905
-0.1621902 -0.63483626 -1.2748898 3811133
-0.16323155 -0.63044316 -1.2753661 4073529
-0.16441602 -0.62548459 -1.2759832 4007718
-0.16546899 -0.62018842 -1.2775031 3679549
-0.16582137 -0.61587536 -1.2784296 3746597
-0.16608948 -0.61157203 -1.2795426 3747351
-0.1664806 -0.60632807 -1.2804793 4008987
-0.16704649 -0.60209399 -1.2801049 4074762
-0.26517785 -0.21409383 -1.3767027 4655373
-0.26704282 -0.21017565 -1.3785695 4525077
-0.27026552 -0.20663787 -1.3795196 4065813
-0.32239598 -0.0016769618 -1.4331405 10113087
-0.32120574 0.0019050576 -1.4319035 10179911
-0.32069963 0.0054325871 -1.4313565 10311494
-0.16337097 -0.62796432 -1.2716612 3877408
-0.16420078 -0.62396002 -1.2710373 3746068
-0.16542256 -0.61902601 -1.2720343 3679794
-0.16647094 -0.61504608 -1.2733957 3614256
-0.16759449 -0.6106745 -1.2746426 3877149
-0.16744548 -0.60510957 -1.2759407 4139055
-0.16752225 -0.59968936 -1.2767881 3745323
-0.16810304 -0.59584391 -1.2770154 3876924
-0.26145321 -0.22633401 -1.3680806 3998977
-0.26430106 -0.22318876 -1.368775 3867908
-0.26500958 -0.21808103 -1.3714056 4065025
-0.26580507 -0.21367085 -1.3735837 4131330
-0.26902646 -0.20993967 -1.3751165 4000780
-0.32275897 0.00223713 -1.428558 10375742
-0.32234353 0.0064529479 -1.4274416 10508892
-0.16437751 -0.62150568 -1.2677122 3614758
-0.16523564 -0.61811292 -1.268557 3549476
-0.16604692 -0.614492 -1.2685323 3351585
-0.16763568 -0.60834807 -1.2703705 4007723
-0.16862112 -0.60431373 -1.2710662 4006438
-0.16848165 -0.59877753 -1.2725073 3941413
-0.16895044 -0.59388053 -1.2737576 3746377
-0.26023656 -0.22990146 -1.3644053 3737865
-0.26333588 -0.22677886 -1.3650903 3671555
-0.26472598 -0.22432685 -1.3656689 3671053
-0.32113832 0.010896962 -1.424355 10706764
-0.16890997 -0.60193259 -1.2688806 4074003
-0.16976804 -0.59853983 -1.2697252 4400674
-0.17099279 -0.59314644 -1.2698331 3745843
-0.16897219 -0.58867782 -1.2704376 3876143
-0.1702258 -0.58338928 -1.2710111 3548464
-0.17146069 -0.57800931 -1.2712355 3812133
-0.17253679 -0.57375491 -1.2722948 4076074
-0.25732583 -0.23850912 -1.3557584 3541763
-0.25852537 -0.2340976 -1.3576001 3539969
-0.26138574 -0.23036569 -1.3598487 3671299
-0.26356685 -0.22700888 -1.3607408 3344130
-0.32276779 0.011289131 -1.4197361 10773076
-0.32211709 0.013999701 -1.4199915 10773328
-0.17120367 -0.5903849 -1.2661986 3680296
-0.16998625 -0.58752519 -1.2653779 3547697
-0.17107701 -0.58274573 -1.2663045 3547941
-0.17150486 -0.5773133 -1.267498 4007708
-0.17234904 -0.57283908 -1.2688063 3812906
-0.17294782 -0.57005733 -1.2685698 3746865
-0.2569229 -0.23844406 -1.3520583 3408902
-0.25987709 -0.23353618 -1.3532299 3015425
-0.26225668 -0.22971058 -1.3545113 3212545
-0.32351249 0.011826549 -1.416127 10773846
-0.3228088 0.015965682 -1.4153509 10772558
-0.17160696 -0.58603585 -1.2611067 3613492
-0.1721819 -0.58185661 -1.2609214 3483435
-0.17186725 -0.57632351 -1.262339 3615256
-0.1720677 -0.57146508 -1.2635739 3680551
-0.17307824 -0.56736624 -1.2643621 3810872
-0.1742925 -0.56217104 -1.2647728 3549235
-0.1756323 -0.55654222 -1.2654308 3680318
-0.25664157 -0.2370702 -1.3468257 2950154
-0.25926346 -0.23212412 -1.3480227 2818822
-0.26200032 -0.22808015 -1.3489897 3212295
-0.2625972 -0.22530735 -1.3487539 2949889
-0.32309169 0.013880838 -1.4083029 9984081
-0.32268965 0.016988147 -1.4102991 10378329
-0.17150062 -0.58425307 -1.2566113 3547722
-0.17176598 -0.58075595 -1.2565651 3417394
-0.17136037 -0.57524073 -1.2579736 3153957
