# .PCD v0.7 - Point Cloud Data file format
VERSION 0.7
FIELDS x y z rgba
SIZE 4 4 4 4
TYPE F F F U
COUNT 1 1 1 1
WIDTH 935
HEIGHT 1
VIEWPOINT 0 0 0 1 0 0 0
POINTS 935
DATA ascii
-0.11330675 -0.68793339 -1.2140001 3021086
-0.10868199 -0.68677717 -1.2140001 3151370
-0.10256199 -0.68566674 -1.21 2692117
-0.096800074 -0.68566668 -1.21 2693126
-0.11725628 -0.69076669 -1.2190001 2890811
-0.11377341 -0.68728387 -1.2190001 3020310
-0.12230008 -0.6930334 -1.223 3085320
-0.11919405 -0.69148034 -1.223 2759462
-0.11880579 -0.68720955 -1.223 3020328
-0.12503724 -0.69062573 -1.2270001 3215918
-0.12270008 -0.69179434 -1.2270001 2954263
-0.12672009 -0.69578671 -1.2320001 3215914
-0.1271112 -0.69187564 -1.2320001 3215157
-0.13066295 -0.6968686 -1.2360001 3214896
-0.13066295 -0.69216001 -1.2360001 3280940
-0.12713151 -0.70040005 -1.2360001 3281694
-0.13659692 -0.69636822 -1.24 2692648
-0.13699056 -0.69203812 -1.24 2823458
-0.13266039 -0.70187938 -1.24 2822176
-0.13344769 -0.69676191 -1.24 2887722
-0.13344769 -0.69203812 -1.24 3019555
-0.1558277 -0.69111341 -1.2490001 3874088
-0.1558277 -0.68754482 -1.2490001 3808545
-0.15225913 -0.69587147 -1.2490001 3348512
-0.15225913 -0.69111341 -1.2490001 3283238
-0.15344864 -0.68754482 -1.2490001 3480089
-0.15265565 -0.68318319 -1.2490001 3546660
-0.1473839 -0.70601046 -1.248 3020588
-0.14750104 -0.70181906 -1.2490001 3021597
-0.14750104 -0.69706094 -1.2490001 3021072
-0.14789756 -0.69269943 -1.2490001 3020335
-0.14726675 -0.68762952 -1.247 3086135
-0.14228579 -0.70550001 -1.245 3085368
-0.14240102 -0.70250571 -1.2459999 3150901
-0.14228579 -0.6972 -1.245 2955811
-0.14240102 -0.69301242 -1.2460001 2954528
-0.14268105 -0.68810958 -1.2450001 3019807
-0.13754292 -0.70550001 -1.245 2561288
-0.13793816 -0.7023381 -1.2450001 2496285
-0.15645151 -0.69746292 -1.2540001 3678255
-0.15286866 -0.71060008 -1.2540001 3087655
-0.15247057 -0.70741528 -1.2540001 2891554
-0.15167437 -0.70223999 -1.2540001 3086867
-0.15286866 -0.69626862 -1.2540001 3282987
-0.15167437 -0.69149148 -1.2540001 3152686
-0.15167437 -0.68910289 -1.2540001 3283497
-0.15406294 -0.68193722 -1.2540001 3678242
-0.15167437 -0.67238289 -1.2540001 3481901
-0.15167437 -0.66760576 -1.2540001 3548447
-0.14928581 -0.67716008 -1.2540001 3480366
-0.14928581 -0.67357719 -1.2540001 3545896
-0.15707532 -0.71223432 -1.2590001 2894126
-0.15707532 -0.70743811 -1.2590001 3352617
-0.15707532 -0.6882534 -1.2590001 4005415
-0.15707532 -0.68345714 -1.2590001 3876653
-0.15787469 -0.66627091 -1.2590001 4335404
-0.15827437 -0.66307336 -1.2590001 4466228
-0.15467723 -0.70743811 -1.2590001 3220256
-0.15467723 -0.70384097 -1.2590001 3415325
-0.15347818 -0.68225813 -1.2590001 3612468
-0.15347818 -0.67746192 -1.2590001 3481403
-0.15467723 -0.67146671 -1.2590001 3810858
-0.15467723 -0.66786957 -1.2590001 3876896
-0.15227912 -0.63189811 -1.2590001 4400161
-0.14988104 -0.68225813 -1.2590001 3413282
-0.16238579 -0.67841148 -1.263 4731947
-0.15757436 -0.7060771 -1.263 3614505
-0.15516865 -0.68202001 -1.263 3613266
-0.15837626 -0.67801058 -1.263 3942958
-0.15877722 -0.67359996 -1.263 4270892
-0.15998007 -0.66999143 -1.263 4598834
-0.15597056 -0.62267911 -1.263 4467500
-0.15597056 -0.61866957 -1.263 4663593
-0.15276293 -0.63150001 -1.263 4399919
-0.15115912 -0.62749052 -1.263 3810116
-0.15276293 -0.62428284 -1.263 4335669
-0.1606134 -0.68351233 -1.268 4074287
-0.15819816 -0.68471998 -1.268 3746114
-0.15578294 -0.63158476 -1.268 4466990
-0.15739308 -0.62836444 -1.268 4664361
-0.15819816 -0.61830091 -1.268 4533541
-0.15699054 -0.61347044 -1.268 4336672
-0.15658802 -0.60904258 -1.268 4599064
-0.15336768 -0.63158476 -1.268 4334398
-0.15869722 -0.61419433 -1.2720001 4468001
-0.1578896 -0.60773337 -1.2720001 4729626
-0.15708198 -0.60288763 -1.2720001 4860979
-0.15385151 -0.60692573 -1.2720001 4663855
-0.15932103 -0.6020143 -1.2770001 4730167
-0.15932103 -0.59714955 -1.2770001 4729663
-0.15994485 -0.58972007 -1.2820001 4995094
-0.15811723 -0.58834291 -1.2870001 4795909
-0.1556658 -0.5822143 -1.2870001 5122606
-0.16106771 -0.59140098 -1.291 4927254
-0.16106771 -0.58894187 -1.291 4926742
-0.16106771 -0.58402377 -1.291 4927526
-0.16229723 -0.57910568 -1.291 4927521
-0.16106771 -0.57295811 -1.291 4992541
-0.16106771 -0.56926954 -1.291 4993331
-0.15737914 -0.58648288 -1.291 4926496
-0.15860866 -0.58402377 -1.291 4992296
-0.15860866 -0.57664669 -1.291 4993053
-0.16416009 -0.58628571 -1.296 4993061
-0.16169152 -0.58381712 -1.296 4861222
-0.16333725 -0.57805717 -1.296 5058335
-0.16416009 -0.57394284 -1.296 4992294
-0.15798867 -0.56900573 -1.296 4599084
-0.1635544 -0.59102571 -1.3010001 4992802
-0.16479345 -0.58606958 -1.3010001 4926753
-0.16231534 -0.57120097 -1.3010001 5057828
-0.15818518 -0.56789696 -1.3010001 4665375
-0.15488106 -0.56252766 -1.3010001 4730140
-0.153642 -0.55757147 -1.3010001 4664639
-0.16293915 -0.57090861 -1.3060001 4994326
-0.16210994 -0.56759179 -1.3060001 4863264
-0.16169533 -0.56344575 -1.3060001 4731690
-0.16045153 -0.54105717 -1.3060001 4993817
-0.16045153 -0.53732574 -1.3060001 4994082
-0.15796392 -0.56593335 -1.3060001 4732180
-0.15796392 -0.56220198 -1.3060001 4730932
-0.15796392 -0.55722666 -1.3060001 4860985
-0.15796392 -0.55225146 -1.3060001 4992309
-0.15796392 -0.54727626 -1.3060001 5124149
-0.15796392 -0.54354483 -1.3060001 4993331
-0.1660601 -0.54063147 -1.3110001 4797749
-0.1660601 -0.53688574 -1.3110001 5055536
-0.16106582 -0.56810004 -1.3110001 4797467
-0.16106582 -0.56185722 -1.3110001 4796215
-0.16106582 -0.55811143 -1.3110001 4926519
-0.16106582 -0.54562575 -1.3110001 5059109
-0.16356295 -0.54188001 -1.3110001 4797992
-0.16356295 -0.53813434 -1.3110001 4927021
-0.16669343 -0.54519999 -1.3160001 4993844
-0.16669343 -0.53517342 -1.3160001 5121566
-0.16669343 -0.53141332 -1.3160001 5058105
-0.16669343 -0.52640009 -1.3160001 4927285
-0.16168009 -0.55648005 -1.3160001 5122615
-0.16293342 -0.5514667 -1.3160001 5320761
-0.16418676 -0.54770672 -1.3160001 5190197
-0.16418676 -0.53642672 -1.3160001 5058088
-0.16418676 -0.53141332 -1.3160001 4861762
-0.16418676 -0.52640009 -1.3160001 4599353
-0.1616801 -0.51010674 -1.3160001 4862002
-0.1616801 -0.50760001 -1.3160001 5124394
-0.15666679 -0.50509334 -1.3160001 5189671
-0.15666679 -0.50258672 -1.3160001 5254956
-0.15416011 -0.50008005 -1.3160001 5124648
-0.15416011 -0.49632004 -1.3160001 5123650
-0.15416011 -0.49130669 -1.3160001 5124159
-0.15416011 -0.48629338 -1.3160001 5189942
-0.15248899 -0.4816978 -1.3160002 4796226
-0.15165344 -0.4725067 -1.3160001 5057592
-0.16732676 -0.55356193 -1.3210001 4992845
-0.16732676 -0.54978764 -1.3210001 5124676
-0.16481057 -0.55733627 -1.3210001 5319990
-0.1622944 -0.50701243 -1.3210001 5190179
-0.1622944 -0.50449628 -1.3210001 5321767
-0.15977821 -0.50701243 -1.3210001 5321509
-0.15852012 -0.50323814 -1.3210001 5320493
-0.15726203 -0.49820572 -1.3210001 5254992
-0.15726203 -0.49317336 -1.3210001 5190470
-0.15726203 -0.48814097 -1.3210001 5255991
-0.15810075 -0.48352799 -1.3210001 5452580
-0.15474583 -0.4818505 -1.3210001 5255987
-0.15306838 -0.47849557 -1.3210001 5058108
-0.15222964 -0.47178572 -1.3210001 5058102
-0.15222964 -0.46926954 -1.3210001 5058856
-0.17048581 -0.55313146 -1.3260001 4927296
-0.16543439 -0.49756575 -1.3260001 4928319
-0.16543439 -0.49251431 -1.3260001 5191223
-0.16543439 -0.48872575 -1.3260001 5124145
-0.16164583 -0.50261718 -1.3260001 5385778
-0.16164583 -0.49756575 -1.3260001 5190468
-0.16164583 -0.49251431 -1.3260001 5256259
-0.16206679 -0.48788387 -1.3260001 5387082
-0.16164583 -0.48367432 -1.3260001 5321514
-0.15785725 -0.4811486 -1.3260001 5255460
-0.1565944 -0.47736001 -1.3260001 5190198
-0.15533154 -0.47357145 -1.3260001 5322298
-0.15280584 -0.46599433 -1.3260001 5256486
-0.15280584 -0.44326288 -1.3260001 5455178
-0.16605821 -0.50578004 -1.3310001 5189398
-0.16605821 -0.50324482 -1.3310001 5255211
-0.16098773 -0.48169526 -1.3310001 5190445
-0.16098773 -0.44493431 -1.3310001 4796972
-0.15591726 -0.44493431 -1.3310001 5717307
-0.15338202 -0.45634288 -1.3310001 5516872
-0.15338202 -0.45000479 -1.3310001 5587257
-0.15338202 -0.44746953 -1.3310001 5652289
-0.15338202 -0.44239908 -1.3310001 5323332
-0.15084678 -0.43732861 -1.3310001 5323847
-0.15084678 -0.43352574 -1.3310001 5323336
-0.15084678 -0.42211717 -1.3310001 5454125
-0.16286488 -0.47968763 -1.3360001 5058092
-0.1615925 -0.45678478 -1.3360001 5123647
-0.16286488 -0.45296764 -1.3360001 4992313
-0.16286488 -0.44787812 -1.3360001 4993581
-0.16286488 -0.44406098 -1.3360001 4599847
-0.15904774 -0.47714287 -1.3360001 5190463
-0.15650296 -0.47459811 -1.3360001 5386542
-0.15777536 -0.45805717 -1.3360001 5650486
-0.15777534 -0.45296764 -1.3360001 5584435
-0.15819947 -0.44830227 -1.3360002 5650480
-0.15650296 -0.44406098 -1.3360001 5323064
-0.1539582 -0.47205335 -1.3360001 5125659
-0.1539582 -0.46696386 -1.3360001 5321778
-0.1539582 -0.46314669 -1.3360001 5451072
-0.1539582 -0.45424002 -1.3360001 5522241
-0.15141344 -0.43133715 -1.3360001 5388851
-0.15141344 -0.42752001 -1.3360001 5453622
-0.15141344 -0.42115813 -1.3360001 5323554
-0.15141344 -0.41734099 -1.3360001 5454390
-0.15141344 -0.41225147 -1.3360001 5913128
-0.14886868 -0.41225147 -1.3360001 5651002
-0.14886868 -0.40716192 -1.3360001 5454913
-0.16743058 -0.47672954 -1.342 5120809
-0.16743058 -0.47289521 -1.342 5123882
-0.16743058 -0.46778286 -1.342 4925735
-0.16743058 -0.46394855 -1.342 4665125
-0.1635963 -0.47800761 -1.342 5057321
-0.1635963 -0.47289521 -1.342 5189165
-0.16359629 -0.46778286 -1.342 5122350
-0.16359629 -0.46267045 -1.342 4991799
-0.16487439 -0.45116761 -1.342 5058865
-0.16402234 -0.44179493 -1.342 5189669
-0.15976201 -0.47672954 -1.342 5255475
-0.15848391 -0.47289521 -1.342 5322022
-0.15848391 -0.46778286 -1.342 5387820
-0.15848391 -0.46394855 -1.342 5584690
-0.15976201 -0.44605523 -1.342 4864045
-0.15805788 -0.44179493 -1.342 5517879
-0.15464963 -0.44222096 -1.342 5454404
-0.15464963 -0.43710858 -1.342 5323344
-0.15464963 -0.42560571 -1.342 5323036
-0.15464963 -0.41538095 -1.342 5583133
-0.15209344 -0.41026857 -1.342 5388845
-0.15209344 -0.4064343 -1.342 5388851
-0.15209344 -0.40132189 -1.342 5191200
-0.15209344 -0.39748761 -1.342 5191197
-0.15209344 -0.39493144 -1.342 5188903
-0.15209344 -0.29779619 -1.342 8015670
-0.14953725 -0.4051562 -1.342 5585980
-0.14953725 -0.39748761 -1.342 5322779
-0.14868519 -0.39322731 -1.342 5321257
-0.14698106 -0.38854095 -1.342 5454117
-0.14698106 -0.31057712 -1.342 2032139
-0.14698106 -0.30674285 -1.342 3148313
-0.14825915 -0.30290857 -1.342 5585974
-0.14953725 -0.29779619 -1.342 6508606
-0.14442486 -0.31057712 -1.342 1638913
-0.14314677 -0.30674285 -1.342 2097665
-0.14314677 -0.30290857 -1.342 2162953
-0.16164012 -0.44515148 -1.3470001 4926763
-0.16035727 -0.44002005 -1.3470001 5254966
-0.16035727 -0.43745431 -1.3470001 5123884
-0.16035727 -0.43232289 -1.3470001 5058577
-0.16035727 -0.42719144 -1.3470001 4992781
-0.16121252 -0.42291528 -1.3470001 4534822
-0.16164012 -0.41821146 -1.3470001 4862778
-0.16035727 -0.41308004 -1.3470001 4993069
-0.16035727 -0.40794861 -1.3470001 4994348
-0.15779154 -0.44002005 -1.3470001 5453639
-0.15779154 -0.43745431 -1.3470001 5256506
-0.15650868 -0.43360576 -1.3470001 5190445
-0.1569363 -0.42890191 -1.3470001 5190170
-0.15650868 -0.42334288 -1.3470001 5125147
-0.1569363 -0.41863912 -1.3470001 5190191
-0.15650868 -0.41308004 -1.3470001 4928541
-0.15650868 -0.40794861 -1.3470001 4929062
-0.15608107 -0.40324482 -1.3470001 4798486
-0.15522583 -0.39896861 -1.3470001 4928543
-0.15180488 -0.39212668 -1.3470001 5123107
-0.15137726 -0.38742289 -1.3470001 4926994
-0.15094964 -0.38186383 -1.3470001 5124141
-0.15094964 -0.37758768 -1.3470001 4927285
-0.15137726 -0.3656143 -1.3470001 5122870
-0.14752869 -0.38614002 -1.3470001 5847336
-0.14752869 -0.3810086 -1.3470001 5388084
-0.14752869 -0.37716004 -1.3470001 5322039
-0.14752869 -0.37202859 -1.3470001 5256492
-0.14752869 -0.36689717 -1.3470001 5124401
-0.14752869 -0.33867431 -1.3470001 3740468
-0.14752869 -0.33482572 -1.3470001 3345183
-0.14752869 -0.32328004 -1.3470001 1376530
-0.14496297 -0.37202859 -1.3470001 5650484
-0.14496297 -0.36689717 -1.3470001 5387313
-0.14496297 -0.36176574 -1.3470001 4927281
-0.14496297 -0.35663432 -1.3470001 4925996
-0.14496297 -0.3515029 -1.3470001 4860954
-0.14368011 -0.34637147 -1.3470001 4402201
-0.14239725 -0.34252289 -1.3470001 3805502
-0.14368011 -0.33867431 -1.3470001 3018281
-0.14325251 -0.33397052 -1.3470001 1836821
-0.14239725 -0.32712862 -1.3470001 1639170
-0.14368011 -0.32328004 -1.3470001 2097929
-0.14496297 -0.31943145 -1.3470001 1704712
-0.14368011 -0.31301716 -1.3470001 1180673
-0.13983154 -0.33354288 -1.3470001 3475473
-0.13854869 -0.32841146 -1.3470001 4070925
-0.13854869 -0.32328004 -1.3470001 3412740
-0.13726583 -0.31943145 -1.3470001 2953473
-0.13812108 -0.31258956 -1.3470001 1837313
-0.13470012 -0.31686574 -1.3470001 3155201
-0.19786426 -0.27855498 -1.3520001 4989697
-0.19700584 -0.27426288 -1.3520001 4463882
-0.19185536 -0.28198859 -1.3520001 4989957
-0.19185536 -0.27812576 -1.3520001 4659458
-0.19314297 -0.27297527 -1.3520001 4529422
-0.1879925 -0.28198859 -1.3520001 5054723
-0.18799251 -0.27812576 -1.3520001 4527881
-0.18284203 -0.28198859 -1.3520001 5379104
-0.18284203 -0.27941337 -1.3520001 3215906
-0.16352773 -0.44165337 -1.3520001 5058352
-0.16266932 -0.43736133 -1.3520001 4992544
-0.1622401 -0.43264002 -1.3520001 4992778
-0.15580201 -0.39658672 -1.3520001 5123377
-0.15580201 -0.39143622 -1.3520001 4992276
-0.15580201 -0.38242289 -1.3520001 5057323
-0.15580201 -0.37984765 -1.3520001 4927031
-0.15580201 -0.36697146 -1.3520001 5517115
-0.15580201 -0.36439621 -1.3520001 5122890
-0.15322678 -0.38499814 -1.3520001 4730147
-0.15322678 -0.37727243 -1.3520001 4599600
-0.15193917 -0.37340954 -1.3520001 5058854
-0.15193917 -0.36954671 -1.3520001 5123628
-0.15193917 -0.36310858 -1.3520001 4532544
-0.15065154 -0.35795814 -1.3520001 4596802
-0.15193917 -0.35280764 -1.3520001 4794180
-0.14807631 -0.36310858 -1.3520001 4663352
-0.14807631 -0.35795814 -1.3520001 4595767
-0.14807631 -0.35280764 -1.3520001 4333614
-0.14721791 -0.34722799 -1.3520001 3677994
-0.1467887 -0.34379432 -1.3520001 3612226
-0.1467887 -0.33220571 -1.3520001 1704971
-0.1467887 -0.32834288 -1.3520001 1442050
-0.14807631 -0.32061717 -1.3520001 1442067
-0.14721791 -0.31718349 -1.3520001 1376520
-0.14292583 -0.3309181 -1.3520001 853257
-0.1416382 -0.32061717 -1.3520001 2162947
-0.1416382 -0.31675428 -1.3520001 1245953
-0.13777536 -0.31804192 -1.3520001 2425601
-0.11717346 -0.17769143 -1.3520001 5839128
-0.11717346 -0.17382859 -1.3520001 6101788
-0.11459821 -0.1673905 -1.3520001 6168331
-0.11202297 -0.11846097 -1.3520001 6432278
-0.20564011 -0.27548 -1.358 5971971
-0.20176011 -0.27677333 -1.358 5315843
-0.2017601 -0.27160001 -1.358 5511950
-0.19615565 -0.28237778 -1.3580002 5055747
-0.19529344 -0.27806666 -1.358 4330753
-0.1978801 -0.27160001 -1.358 5382166
-0.15649344 -0.38800001 -1.358 4861465
-0.15649344 -0.37248001 -1.358 5189420
-0.15649344 -0.36342669 -1.358 4729917
-0.15390678 -0.36084002 -1.358 4468537
-0.15390678 -0.35825333 -1.358 4665666
-0.1513201 -0.35049334 -1.358 4201792
-0.12028012 -0.21210667 -1.358 4260382
-0.12028012 -0.20822667 -1.358 3868184
-0.12028012 -0.19012001 -1.358 5380110
-0.12157346 -0.18753333 -1.358 5510919
-0.12114234 -0.18408446 -1.3580002 5576711
-0.12028012 -0.17848 -1.358 5706004
-0.12028012 -0.17460001 -1.358 5904647
-0.11640012 -0.21210667 -1.358 4261897
-0.11596901 -0.20736444 -1.3580002 4919557
-0.11769345 -0.20175999 -1.358 5378317
-0.11596901 -0.19615555 -1.3580002 5446423
-0.11769345 -0.19141334 -1.358 5379602
-0.11769345 -0.18494667 -1.358 5708802
-0.11769345 -0.17201333 -1.358 6298128
-0.11769345 -0.16813335 -1.358 6233864
-0.11640012 -0.16295999 -1.358 6233365
-0.11510678 -0.15132 -1.358 6496314
-0.11596901 -0.1470089 -1.3580002 6563374
-0.11596901 -0.14269778 -1.3580002 6433281
-0.11510678 -0.13838667 -1.358 6433537
-0.11252011 -0.1358 -1.358 6563608
-0.11252011 -0.13062666 -1.358 6433069
-0.11252011 -0.12674665 -1.358 6497324
-0.11252011 -0.12286668 -1.358 6498082
-0.10864011 -0.12674665 -1.358 6760734
-0.10864011 -0.11769334 -1.358 6695952
-0.20639725 -0.2726 -1.363 5577481
-0.15706962 -0.36216858 -1.363 4861744
-0.15706962 -0.35957238 -1.363 4928066
-0.15187725 -0.34788954 -1.363 3874627
-0.14668486 -0.22327238 -1.363 7088672
-0.12072297 -0.20639715 -1.363 4392983
-0.12072297 -0.20250286 -1.363 5115156
-0.12072297 -0.19731048 -1.363 5445681
-0.12245376 -0.19255081 -1.3630002 5249301
-0.12331916 -0.18173334 -1.363 5575963
-0.12158836 -0.17091589 -1.3630002 6035977
-0.12202106 -0.16745429 -1.363 6035475
-0.11812678 -0.20639715 -1.363 5050636
-0.11812678 -0.19860858 -1.363 5577498
-0.11812678 -0.1622619 -1.363 6298909
-0.1155306 -0.15836762 -1.363 6364707
-0.11726139 -0.15360793 -1.3630002 6431014
-0.11812678 -0.14928097 -1.363 6497342
-0.11033821 -0.12331905 -1.363 6628889
-0.11033821 -0.1116362 -1.363 6499376
-0.11033821 -0.10774191 -1.363 6232856
-0.10644392 -0.11553049 -1.363 6827536
-0.10514583 -0.1116362 -1.363 6827789
-0.21236582 -0.26187429 -1.368 5444870
-0.2097601 -0.27229714 -1.368 5447691
-0.20715439 -0.26838857 -1.368 5904403
-0.15634297 -0.22278857 -1.368 6886913
-0.14982869 -0.22539428 -1.368 7088404
-0.14982869 -0.22278857 -1.368 6891791
-0.12377155 -0.19803429 -1.368 5380124
-0.12116583 -0.16025144 -1.368 6035761
-0.12116583 -0.15634286 -1.368 6234897
-0.11856012 -0.16025144 -1.368 6364456
-0.11856012 -0.15764572 -1.368 6430753
-0.11074296 -0.11595429 -1.368 6696743
-0.10813726 -0.11204572 -1.368 6696479
-0.1068344 -0.10683429 -1.368 6563590
-0.10553154 -0.10162286 -1.368 6630662
-0.10553154 -0.096411437 -1.368 6562833
-0.10553154 -0.09250287 -1.368 6563081
-0.10292583 -0.10683429 -1.368 6893828
-0.10162296 -0.10162286 -1.368 7023366
-0.2159144 -0.26040575 -1.3740001 5446401
-0.21722297 -0.25778857 -1.3740001 5446404
-0.21068011 -0.27087432 -1.3740001 5575956
-0.21198867 -0.26694858 -1.3740001 5642249
-0.21198867 -0.26040575 -1.3740001 5840900
-0.10599441 -0.085057154 -1.3740001 6562572
-0.21801345 -0.2561 -1.3790001 5576966
-0.21407345 -0.27186 -1.3790001 5444881
-0.16285343 -0.22195335 -1.3790001 5902619
-0.10769345 -0.08668001 -1.3790001 6365704
-0.10638012 -0.08142668 -1.3790001 6432782
-0.1028779 -0.080988906 -1.3790001 6761233
-0.23874773 -0.23083337 -1.3850001 5315340
-0.23874773 -0.22687623 -1.3850001 4790276
-0.22555727 -0.24666195 -1.3850001 4984835
-0.22687632 -0.24270479 -1.3850001 5312513
-0.22291917 -0.25193813 -1.3850001 5314307
-0.22291917 -0.247981 -1.3850001 5313795
-0.16751917 -0.22160001 -1.3850001 5446180
-0.16488107 -0.22028096 -1.3850001 6106936
-0.10948107 -0.088376202 -1.3850001 6233605
-0.10948108 -0.081780963 -1.3850001 6235145
-0.10816203 -0.076504774 -1.3850001 6301457
-0.10684298 -0.072547629 -1.3850001 6431258
-0.10420489 -0.072547629 -1.3850001 6628384
-0.24225727 -0.22637145 -1.3900001 4596737
-0.24313982 -0.22195876 -1.3900001 4133897
-0.23696202 -0.2329905 -1.3900001 5049875
-0.2343144 -0.24225718 -1.3900001 5250827
-0.23299059 -0.23828574 -1.3900001 5117209
-0.17606679 -0.20651431 -1.3900001 6835480
-0.17209534 -0.22240002 -1.3900001 5707292
-0.11649537 -0.058247622 -1.3900001 5576969
-0.11781918 -0.054276198 -1.3900001 5184014
-0.11252394 -0.075457156 -1.3900001 5774867
-0.11252394 -0.070161916 -1.3900001 5841165
-0.11252394 -0.0675143 -1.3900001 5906180
-0.11252394 -0.058247626 -1.3900001 5841153
-0.10987632 -0.072809532 -1.3900001 6168856
-0.10987632 -0.0675143 -1.3900001 6233860
-0.10899379 -0.063101597 -1.3900001 6234114
-0.24596201 -0.21804193 -1.396 4262925
-0.1781563 -0.21405336 -1.396 4002827
-0.17948583 -0.20740573 -1.396 5913381
-0.17150867 -0.21804193 -1.396 6367251
-0.17416772 -0.21272384 -1.396 7292174
-0.16884963 -0.21937144 -1.396 5912352
-0.11566869 -0.070464768 -1.396 5510665
-0.11566869 -0.067805722 -1.396 5576452
-0.11699821 -0.062487621 -1.396 5643009
-0.11566869 -0.053180955 -1.396 5512201
-0.11566869 -0.046533339 -1.396 5905922
-0.11832774 -0.014624767 -1.396 6169612
-0.11300965 -0.073123813 -1.396 5775126
-0.11300965 -0.06514667 -1.396 5971458
-0.11300965 -0.062487621 -1.396 5905921
-0.11300965 -0.051851433 -1.396 5840392
-0.25236014 -0.20829718 -1.4020001 3737114
-0.24968964 -0.21363811 -1.4020001 4000265
-0.18292773 -0.20696193 -1.4020001 5509690
-0.18292773 -0.20429145 -1.4020001 5840958
-0.11616584 -0.076108582 -1.4020001 5313548
-0.11616584 -0.073438101 -1.4020001 5379343
-0.11616584 -0.065426677 -1.4020001 5708802
-0.11883631 -0.052074291 -1.4020001 5381645
-0.11794616 -0.048513662 -1.4020002 5709062
-0.11616584 -0.044062864 -1.4020001 6036738
-0.11616584 -0.025369529 -1.4020001 6299688
-0.11794616 -0.020918738 -1.4020002 6300427
-0.11750108 -0.017358102 -1.4020001 6300683
-0.11750108 -0.013352388 -1.4020001 6234895
-0.11349536 -0.041392386 -1.4020001 6302722
-0.11349536 -0.036051434 -1.4020001 6368257
-0.18894011 -0.20234002 -1.4070001 4524033
-0.11658013 -0.041540004 -1.4070001 6036737
-0.11658013 -0.037520003 -1.4070001 6101505
-0.11658013 -0.033500005 -1.4070001 6233608
-0.11658013 -0.028140007 -1.4070001 6299932
-0.11658013 -0.022780007 -1.4070001 6365465
-0.11658013 -0.012060004 -1.4070001 6430988
-0.11792013 -0.0093800062 -1.4070001 6233870
-0.28932869 -0.14937432 -1.4130001 3671298
-0.27048871 -0.18167146 -1.4130001 3541518
-0.25703156 -0.1964743 -1.4130001 3474433
-0.25434011 -0.20589431 -1.4130001 3474960
-0.25434011 -0.20185716 -1.4130001 3672065
-0.20051154 -0.17763431 -1.4130001 4393988
-0.20185725 -0.17225145 -1.4130001 4658181
-0.20320299 -0.16821431 -1.4130001 4855046
-0.19782011 -0.17763431 -1.4130001 5316613
-0.18974583 -0.20051146 -1.4130001 4981525
-0.18974583 -0.19782002 -1.4130001 5380394
-0.11707728 -0.030951435 -1.4130001 6234896
-0.11842299 -0.006728577 -1.4130001 6234897
-0.11707728 -0.0026914338 -1.4130001 5778196
-0.11304013 -0.006728577 -1.4130001 6694668
-0.11169442 -0.0026914335 -1.4130001 6695706
-0.10900299 -0.0067285765 -1.4130001 7088660
-0.10900299 -0.0026914333 -1.4130001 6958110
-0.28244871 -0.16622573 -1.419 3936277
-0.27974585 -0.17163144 -1.419 3541001
-0.27974585 -0.16757716 -1.419 3476234
-0.26623154 -0.19190288 -1.419 3605262
-0.26758295 -0.18649715 -1.419 3408647
-0.26082584 -0.19730859 -1.419 3213057
-0.26217729 -0.19190286 -1.419 3343620
-0.26217729 -0.18784858 -1.419 3539716
-0.25812295 -0.20271429 -1.419 3738625
-0.12568296 0.047299996 -1.419 4988956
-0.12568296 0.051354282 -1.419 5579289
-0.12162869 -0.0027028625 -1.419 5908495
-0.12027727 0.0027028518 -1.419 5972996
-0.12162869 0.0081085656 -1.419 5907977
-0.11757442 0.002702852 -1.419 6039824
-0.11757442 0.0081085656 -1.419 6171658
-0.11487156 -0.0027028623 -1.419 6237207
-0.11397061 0.0022523762 -1.419 6434077
-0.11397061 0.0085590435 -1.419 6565390
-0.11352013 0.013514281 -1.419 6695947
-0.29178587 -0.1479286 -1.4250001 3146504
-0.28635728 -0.15335716 -1.4250001 3672068
-0.28364298 -0.16285716 -1.4250001 3475979
-0.28228584 -0.15742859 -1.4250001 3606786
-0.26464298 -0.19678575 -1.4250001 2689030
-0.21578585 -0.15335716 -1.4250001 4394497
-0.12350013 0.0027142803 -1.4250001 5971720
-0.12078585 0.012214281 -1.4250001 6169876
-0.12078585 0.023071423 -1.4250001 6301256
-0.12078585 0.027142851 -1.4250001 6363439
-0.12078585 0.032571424 -1.4250001 6497302
-0.12078585 0.037999999 -1.4250001 6432517
-0.12214299 0.04342857 -1.4250001 6365450
-0.11807156 0.013571424 -1.4250001 6367504
-0.11807156 0.017642852 -1.4250001 6564880
-0.11807156 0.021714281 -1.4250001 6630181
-0.11807156 0.027142851 -1.4250001 6561830
-0.11807156 0.031214282 -1.4250001 6759969
-0.29710302 -0.1376486 -1.4310001 3409175
-0.29710302 -0.13492288 -1.4310001 3868427
-0.29028869 -0.15400289 -1.4310001 3933958
-0.29301444 -0.14582574 -1.4310001 3342862
-0.29210585 -0.14219145 -1.4310001 3606031
-0.287563 -0.16218004 -1.4310001 3215108
-0.28483728 -0.1567286 -1.4310001 3606529
-0.22214586 -0.15127717 -1.4310001 3866881
-0.22305444 -0.12856288 -1.4310001 4855297
-0.22487156 -0.1212943 -1.4310001 5055233
-0.22487156 -0.11856858 -1.4310001 5185537
-0.21669443 -0.15945432 -1.4310001 4260870
-0.21942014 -0.15264003 -1.4310001 4195073
-0.21942014 -0.1471886 -1.4310001 4523010
-0.21942014 -0.14173716 -1.4310001 4853517
-0.21942014 -0.1376486 -1.4310001 5248777
-0.12674583 0.034071427 -1.4310001 6098203
-0.12674583 0.036797144 -1.4310001 5900814
-0.12129442 0.014991424 -1.4310001 6300953
-0.12129442 0.017717138 -1.4310001 6301983
-0.12265728 0.021805709 -1.4310001 6105399
-0.12402014 0.027257139 -1.4310001 6168349
-0.12402014 0.03270857 -1.4310001 6297365
-0.12402014 0.03816 -1.4310001 6233862
-0.12402014 0.042248569 -1.4310001 6364681
-0.12402014 0.053151429 -1.4310001 6365715
-0.12129442 0.058602858 -1.4310001 6564360
-0.12129442 0.062691428 -1.4310001 6432002
-0.30519158 -0.12180287 -1.437 3147292
-0.30610397 -0.11724097 -1.437 4064781
-0.30245441 -0.12317144 -1.437 3345410
-0.29698011 -0.14233144 -1.437 4260124
-0.29834867 -0.13138288 -1.437 4261637
-0.29834867 -0.12727717 -1.437 4261634
-0.29971725 -0.12317144 -1.437 3542529
-0.29150581 -0.15738574 -1.437 4130826
-0.28876868 -0.16012287 -1.437 2886149
-0.28876868 -0.15738574 -1.437 3278085
-0.22855155 -0.11359144 -1.437 5442561
-0.21760297 -0.15191145 -1.437 4723969
-0.21760297 -0.1491743 -1.437 5054721
-0.1300144 0.039688565 -1.437 5308981
-0.1300144 0.042425707 -1.437 4981053
-0.1300144 0.045162849 -1.437 4325701
-0.12727727 0.039688569 -1.437 5769730
-0.12727727 0.042425711 -1.437 5638669
-0.12727727 0.045162853 -1.437 5313817
-0.12727727 0.067059994 -1.437 5445633
-0.12727727 0.072534278 -1.437 5117953
-0.12727727 0.076639995 -1.437 5118977
-0.12454012 0.01505428 -1.437 6233882
-0.12454012 0.020528566 -1.437 5840936
-0.12454012 0.056111425 -1.437 6366474
-0.12454012 0.068428569 -1.437 5970433
-0.12454012 0.072534278 -1.437 5904129
-0.12454012 0.076639995 -1.437 5905154
-0.31196299 -0.11406573 -1.4430001 4129044
-0.30784014 -0.11131716 -1.4430001 3737090
-0.29272297 -0.16079146 -1.4430001 4327685
-0.23225442 -0.1168143 -1.4430001 4524545
-0.23225442 -0.11269144 -1.4430001 4327173
-0.13055727 0.071462847 -1.4430001 4392194
-0.13055727 0.076959997 -1.4430001 4263937
-0.13055727 0.082457133 -1.4430001 4459521
-0.12506013 0.01786571 -1.4430001 6036501
-0.12780869 0.028859995 -1.4430001 6366209
-0.12780869 0.03160857 -1.4430001 6361102
-0.12506013 0.059094284 -1.4430001 6432518
-0.12597632 0.06367524 -1.4430002 6037761
-0.12780869 0.070088565 -1.4430001 5182465
-0.32706013 -0.08418002 -1.4490001 5448715
-0.32154015 -0.092460021 -1.4490001 4720129
-0.32246014 -0.087860025 -1.4490001 4000521
-0.31326014 -0.11178003 -1.4490001 3539216
-0.31326014 -0.10902002 -1.4490001 3932429
-0.31188014 -0.10212003 -1.4490001 4590343
-0.23598015 -0.10626001 -1.4490001 4789520
-0.23598015 -0.10212002 -1.4490001 5383953
-0.23598015 -0.097980015 -1.4490001 5649428
-0.23874015 -0.088320009 -1.4490001 6108930
-0.23322016 -0.10764001 -1.4490001 4989966
-0.23322016 -0.10350002 -1.4490001 5648385
-0.33257154 -0.076214299 -1.455 5450550
-0.32702869 -0.081757158 -1.455 4656656
-0.32702869 -0.077600017 -1.455 4787983
-0.32702869 -0.072057158 -1.455 5249819
-0.32148585 -0.10115716 -1.455 5379895
-0.32148585 -0.097000018 -1.455 4851753
-0.32287157 -0.081757158 -1.455 4658177
-0.31732869 -0.11224288 -1.455 5908768
-0.31732869 -0.10947144 -1.455 5117210
-0.31732869 -0.10115716 -1.455 4327699
-0.31732869 -0.097000018 -1.455 4394765
-0.31732869 -0.092842869 -1.455 4723204
-0.31455725 -0.10670002 -1.455 4392205
-0.31455725 -0.10115716 -1.455 4655882
-0.31455725 -0.098385729 -1.455 4722953
-0.24250013 -0.08730001 -1.455 5775874
-0.13441443 0.073442854 -1.455 2818305
-0.13441443 0.078985713 -1.455 3211523
-0.33533442 -0.072354302 -1.4610001 6697517
-0.33533442 -0.062614299 -1.4610001 7097352
-0.33533442 -0.058440015 -1.4610001 7027481
-0.33255157 -0.079311453 -1.4610001 3939631
-0.33255157 -0.072354302 -1.4610001 4656168
-0.33255157 -0.066788591 -1.4610001 5445141
-0.33255157 -0.062614299 -1.4610001 6037011
-0.33255157 -0.058440015 -1.4610001 5906206
-0.33255157 -0.052874304 -1.4610001 5905461
-0.32884109 -0.067252405 -1.4610002 5644314
-0.32976872 -0.062614299 -1.4610001 5970974
-0.32976872 -0.058440015 -1.4610001 5971235
-0.32837728 -0.052874304 -1.4610001 5906972
-0.32837728 -0.047308587 -1.4610001 6169109
-0.32791346 -0.04127907 -1.4610002 6629920
-0.32837728 -0.037568588 -1.4610001 6892086
-0.32698584 -0.033394299 -1.4610001 6365254
-0.32142013 -0.11270573 -1.4610001 8277040
-0.32142013 -0.10853145 -1.4610001 5253678
-0.32281154 -0.10435716 -1.4610001 5448502
-0.32420298 -0.057048589 -1.4610001 5839361
-0.32281157 -0.052874304 -1.4610001 5839114
-0.32281154 -0.047308587 -1.4610001 6039319
-0.32234776 -0.042206686 -1.4610002 6236683
-0.32281154 -0.037568588 -1.4610001 6367263
-0.32281157 -0.033394299 -1.4610001 6498587
-0.32281154 -0.027828587 -1.4610001 6761258
-0.32142013 -0.023654303 -1.4610001 6630199
-0.31863728 -0.10714002 -1.4610001 4325655
-0.31863728 -0.10435716 -1.4610001 4326677
-0.31678206 -0.022726681 -1.4610002 6760977
-0.27411157 0.058439989 -1.4610001 7420999
-0.24628301 -0.077920012 -1.4610001 6105354
-0.24628301 -0.072354294 -1.4610001 7492936
-0.24350014 -0.084877148 -1.4610001 6040581
-0.24071729 0.10853142 -1.4610001 8799055
-0.21845444 -0.015305724 -1.4610001 8276225
-0.21706301 -0.012522867 -1.4610001 8401674
-0.21706301 -0.009740009 -1.4610001 6363141
-0.19619158 0.18227713 -1.4610001 10244963
-0.19062586 0.02365428 -1.4610001 7614977
-0.19340873 0.18505999 -1.4610001 9852514
-0.18784301 0.02365428 -1.4610001 10249281
-0.18645157 0.026437135 -1.4610001 10048049
-0.33671156 -0.067062877 -1.4670001 6764556
-0.33391729 -0.08243145 -1.4670001 5516341
-0.33391729 -0.047502875 -1.4670001 6238523
-0.33112299 -0.043311447 -1.4670001 6694686
-0.32553443 -0.040517159 -1.4670001 6366227
-0.31994584 -0.020957159 -1.4670001 6630401
-0.31808302 -0.017231444 -1.4670002 6696449
-0.31296015 -0.015368586 -1.4670001 7221507
-0.31435731 -0.0125743 -1.4670001 6828548
-0.30597445 0.0027942727 -1.4670001 6889756
-0.30597445 0.0083828447 -1.4670001 6890779
-0.272443 0.061474279 -1.4670001 7616588
-0.26825157 0.067062847 -1.4670001 7748406
-0.26825157 0.071254276 -1.4670001 8277319
-0.25008869 0.097799994 -1.4670001 8608110
-0.24170586 -0.085225731 -1.4670001 6501633
-0.24450016 -0.082431443 -1.4670001 6239752
-0.24450016 -0.072651438 -1.4670001 7294267
-0.24450016 -0.06846001 -1.4670001 9002568
-0.24310301 0.10478572 -1.4670001 8079181
-0.24450016 0.10758 -1.4670001 8742492
-0.23052873 0.12155143 -1.4670001 8472891
-0.22773443 -0.027942868 -1.4670001 9722423
-0.22773443 0.13831714 -1.4670001 8344902
-0.22773443 0.14111142 -1.4670001 9133636
-0.22494015 -0.020957153 -1.4670001 7287553
-0.22354302 -0.016765725 -1.4670001 6295046
-0.223543 0.13692001 -1.4670001 8670236
-0.22494015 0.14111142 -1.4670001 9000193
-0.20538016 0.17324571 -1.4670001 9200999
-0.20258588 0.17743714 -1.4670001 10116457
-0.1997916 0.18023142 -1.4670001 10376797
-0.19420302 0.018162848 -1.4670001 9986341
-0.1867516 0.19234 -1.4670002 9854284
-0.15228873 0.21795431 -1.4670001 10707809
-0.15228873 0.22214574 -1.4670001 11304806
-0.14670016 0.22214574 -1.4670001 11108701
-0.14390588 0.22214574 -1.4670001 10974302
-0.13552301 0.076842852 -1.4670001 2949378
-0.31283727 -0.012625728 -1.473 7157000
-0.31143442 -0.0084171565 -1.473 7025684
-0.31003156 -0.002805728 -1.473 7022881
-0.30722582 -0.0070142993 -1.473 7090207
-0.30722582 -0.0014028705 -1.473 7022115
-0.28758582 0.036474276 -1.473 6828337
-0.28197441 0.049099989 -1.473 6889544
-0.28197441 0.051905707 -1.473 7614295
-0.2791687 0.051905707 -1.473 7155016
-0.26514012 0.074351415 -1.473 8076070
-0.26514012 0.077157125 -1.473 8468560
-0.26233441 0.074351415 -1.473 7616562
-0.25672299 0.086977132 -1.473 8012636
-0.25111157 -0.053308588 -1.473 9718310
-0.25111157 -0.047697153 -1.473 4915457
-0.25298205 0.092120953 -1.473 8865592
-0.24550013 -0.07856001 -1.473 6503438
-0.24830586 -0.046294298 -1.473 6831874
-0.24690299 -0.043488584 -1.473 5971470
-0.24550013 0.10240857 -1.473 8208222
-0.24269442 -0.082768582 -1.473 6501890
-0.24269442 -0.07856001 -1.473 6438675
-0.24269442 -0.074351437 -1.473 6372136
-0.23801826 -0.036006682 -1.473 7621385
-0.237083 -0.032265726 -1.473 6169601
-0.23801826 0.11176095 -1.473 8406301
-0.23427729 -0.036474299 -1.473 10382396
-0.23427729 -0.032265726 -1.473 8865831
-0.23147157 -0.028057152 -1.473 7682836
-0.22866586 0.12345142 -1.473 8603954
-0.22866586 0.12765998 -1.473 8669494
-0.22679539 0.13233618 -1.473 8342048
-0.22866586 0.13607714 -1.473 8211529
-0.2221192 0.14355905 -1.473 8932395
-0.22165157 0.14729999 -1.473 8735801
-0.21744299 0.14729999 -1.473 8538928
-0.21744299 0.1501057 -1.473 8276519
-0.21744299 0.15571713 -1.473 9325625
-0.21463728 -0.0070142951 -1.473 7887625
-0.21323442 -0.0028057238 -1.473 7150860
-0.21323442 0.0014028478 -1.473 4391169
-0.21323442 0.15571713 -1.473 9194034
-0.21323442 0.16273142 -1.473 9000749
-0.21183157 0.16834284 -1.473 9397320
-0.20902584 0.0042085624 -1.473 6161665
-0.2080906 0.16319904 -1.473 8999973
-0.20902584 0.16834284 -1.473 9196102
-0.20060872 0.0098199919 -1.473 10836788
-0.20201157 0.012625705 -1.473 6892059
-0.20060872 0.015431421 -1.473 5841947
-0.20060873 0.17535713 -1.473 9522783
-0.18938588 0.18657999 -1.473 9721167
-0.18237159 0.19499713 -1.473 9262674
-0.18237159 0.19780284 -1.473 10052955
-0.17676015 0.19780284 -1.473 9852507
-0.17816301 0.20060857 -1.473 10052707
-0.16132872 0.21183144 -1.473 10311500
-0.15712015 0.21323429 -1.473 10443105
-0.15712015 0.21744286 -1.473 10774891
-0.1557173 0.22024857 -1.473 10975595
-0.15010586 0.21744286 -1.473 10508127
-0.15010586 0.22165143 -1.473 11105633
-0.14168873 0.22165143 -1.473 10576482
-0.14168873 0.22586001 -1.473 11108182
-0.13888301 0.22165143 -1.473 10312553
-0.13888301 0.22586001 -1.473 10976855
-0.29740962 0.018323796 -1.48 6631200
-0.29740962 0.022552367 -1.48 6561333
-0.29740962 0.026780941 -1.48 6494530
-0.29459059 0.018323796 -1.48 6564881
-0.29365093 0.02302221 -1.48 6564137
-0.29177156 0.028190464 -1.48 6891822
-0.29177156 0.032419037 -1.48 6958387
-0.29177156 0.035238083 -1.48 6954552
-0.28754297 0.032419037 -1.48 7023663
-0.28613344 0.036647607 -1.48 6828849
-0.28613344 0.042285703 -1.48 7289638
-0.28613344 0.046514273 -1.48 7152215
-0.28331441 0.043695226 -1.48 7485490
-0.28331441 0.046514273 -1.48 7153977
-0.26076204 0.077523798 -1.48 7750444
-0.26076204 0.081752367 -1.48 7815224
-0.25512394 0.077523805 -1.48 8011822
-0.25230488 0.088799991 -1.48 8470059
-0.24948584 -0.049333341 -1.48 8344836
-0.24384776 -0.040876202 -1.48 7354396
-0.23820966 0.10289523 -1.48 8405829
-0.23539062 0.11839999 -1.48 8408365
-0.23257156 -0.032419059 -1.48 9525838
-0.23257156 0.11839999 -1.48 8342577
-0.23257156 0.12685713 -1.48 8538443
-0.22975251 0.13108569 -1.48 8341553
-0.22129537 0.15222855 -1.48 8736279
-0.22129537 0.15645713 -1.48 9857349
-0.21706681 0.15363808 -1.48 8866597
-0.21706681 0.15927617 -1.48 9063747
-0.21847633 0.16209522 -1.48 9005392
-0.21001919 0.0014095146 -1.48 7680513
-0.21283822 0.15927617 -1.48 8997436
-0.20720012 0.0042285626 -1.48 10436121
-0.20720012 0.0070476104 -1.48 6297862
-0.20438109 0.0098666577 -1.48 6493958
-0.18464775 0.032419041 -1.48 8794915
-0.17619063 0.20297141 -1.48 10051686
-0.1724319 0.20344125 -1.48 9984603
-0.17055254 0.20719998 -1.48 10048856
-0.17055254 0.21001904 -1.48 10447193
-0.16773348 0.20438096 -1.48 10049871
-0.16773348 0.20719999 -1.48 10049601
-0.16773348 0.21001905 -1.48 9984052
-0.16491443 0.21142857 -1.48 10049316
-0.14236203 0.088799991 -1.48 1966343
-0.139543 0.074704759 -1.48 1310977
-0.139543 0.077523805 -1.48 1704193
-0.139543 0.081752375 -1.48 2228482
-0.13672395 0.22270477 -1.48 10376817
-0.13672395 0.22693333 -1.48 10975065
-0.13249539 0.22270477 -1.48 10506597
-0.13202555 0.22787301 -1.48 11107158
-0.1268573 0.22270477 -1.48 10443092
-0.11699061 0.22693333 -1.48 10249820
-0.11417156 0.22834286 -1.48 10510939
-0.30144584 0.018398082 -1.4860001 6562607
-0.30144584 0.022643797 -1.4860001 6694468
-0.29578489 0.02830475 -1.4860001 6694193
-0.26464966 0.077838086 -1.4860001 7552318
-0.26464966 0.080668561 -1.4860001 7620682
-0.23351441 0.13303237 -1.4860001 8670301
-0.20804015 0.0014152291 -1.4860001 10380076
-0.20520966 0.0070761819 -1.4860001 8406028
-0.18539634 0.041041899 -1.4860001 1507587
-0.18256585 0.032550469 -1.4860001 10186299
-0.18256585 0.036796182 -1.4860001 6232577
-0.18256585 0.042457137 -1.4860001 2752769
-0.17973539 0.043872375 -1.4860001 1638657
-0.17832014 0.048118088 -1.4860001 2556161
-0.17265917 0.048118088 -1.4860001 3804161
-0.16746998 0.048589833 -1.4860001 8933939
-0.16841348 0.052363805 -1.4860001 4587777
-0.15284584 0.06227047 -1.4860001 8471837
-0.15426108 0.069346659 -1.4860001 1835265
-0.14718489 0.087744758 -1.4860001 524550
-0.14293918 0.083499044 -1.4860001 1310978
-0.14293918 0.08632952 -1.4860001 1638660
-0.12737158 0.22785333 -1.4860001 10777674
-0.12689984 0.23162732 -1.4860001 11106897
-0.12123886 0.22690985 -1.4860001 10314584
-0.12171062 0.23209906 -1.4860001 10909782
-0.1174649 0.23209906 -1.4860001 10909017
-0.11180395 0.22785333 -1.4860001 10511202
-0.11180395 0.23209906 -1.4860001 10842203
-0.10755824 0.22643811 -1.4860001 10114913
-0.10755824 0.23209906 -1.4860001 10513760
-0.10331251 0.23068382 -1.4860001 9985891
-0.18046109 0.032681897 -1.4920001 11562828
-0.18046109 0.036944758 -1.4920001 9785129
-0.18046109 0.041207612 -1.4920001 5441281
-0.17761919 0.036944758 -1.4920001 10315858
-0.17761919 0.042628564 -1.4920001 6232321
-0.17477728 0.036944758 -1.4920001 10777171
-0.17335634 0.042628564 -1.4920001 9526584
-0.16056776 0.061100949 -1.4920001 3473665
-0.15772586 0.063942857 -1.4920001 3473665
-0.15772586 0.068205707 -1.4920001 655617
-0.15298934 0.067732058 -1.4920001 3934724
-0.15204205 0.072468564 -1.4920001 393473
-0.15204205 0.076731421 -1.4920001 393473
-0.14920014 0.076731421 -1.4920001 524546
-0.14777918 0.082415238 -1.4920001 196866
-0.14351633 0.078152381 -1.4920001 917761
-0.14351633 0.080994286 -1.4920001 1114369
-0.10088777 0.22877336 -1.4920001 9916226
-0.10088777 0.23161525 -1.4920001 9853526
-0.096151255 0.22782604 -1.4920001 9721409
-0.096624903 0.23303619 -1.4920001 10119508
-0.095203951 0.23729905 -1.4920001 11500893
-0.092362046 0.23303621 -1.4920001 10053458
-0.092362046 0.23729905 -1.4920001 11434329
-0.092362046 0.24014096 -1.4920001 11303266
-0.088099197 0.23303621 -1.4920001 10053209
-0.088099197 0.23729905 -1.4920001 11303772
-0.089520149 0.24014096 -1.4920001 11236449
-0.15846585 0.061387613 -1.4990001 6365204
-0.14847252 0.072808571 -1.4990001 1573121
-0.1470449 0.077091426 -1.4990001 590081
-0.14418966 0.075663805 -1.4990001 1179905
-0.15060014 0.070279993 -1.506 4660993
-0.14342871 0.073148564 -1.506 1179906
-0.13912585 0.073148564 -1.506 2687240
-0.14688013 0.070559993 -1.5120001 4992513
