# .PCD v0.7 - Point Cloud Data file format
VERSION 0.7
FIELDS x y z rgba
SIZE 4 4 4 4
TYPE F F F U
COUNT 1 1 1 1
WIDTH 1150
HEIGHT 1
VIEWPOINT 0 0 0 1 0 0 0
POINTS 1150
DATA ascii
-0.19295996 -0.68110293 1.2060001 3151399
-0.19870284 -0.68110293 1.2060001 3216926
-0.20214856 -0.68110293 1.2060001 2692376
-0.20674284 -0.68110293 1.2060001 2625563
-0.21203807 -0.68220955 1.21 2627121
-0.2166476 -0.68220955 1.21 2824510
-0.22163464 -0.6819669 1.2108001 3216167
-0.22661331 -0.68562096 1.2140001 3872044
-0.22661331 -0.68215239 1.2140001 3414315
-0.23102951 -0.68728387 1.2190001 3480107
-0.23102951 -0.68264008 1.2190001 3021374
-0.23411712 -0.69070381 1.223 3284529
-0.23411712 -0.68720955 1.223 2890790
-0.23799905 -0.69140482 1.2270001 2693929
-0.23721999 -0.68712008 1.2270001 2300170
-0.24053332 -0.69578671 1.2320001 3020846
-0.24053332 -0.69109339 1.2320001 1710358
-0.24053332 -0.68874675 1.2320001 2038283
-0.24366856 -0.6968686 1.2360001 2757666
-0.24366856 -0.69333714 1.2360001 2167066
-0.24366981 -0.69164455 1.24 2430997
-0.24327615 -0.68849522 1.24 2497562
-0.24681902 -0.70030475 1.24 3019808
-0.24681902 -0.69676191 1.24 2757154
-0.24307141 -0.68889999 1.245 2756894
-0.24781424 -0.69601429 1.245 2691616
-0.24781424 -0.69245714 1.245 2497057
-0.24662852 -0.68771434 1.245 2363676
-0.24742094 -0.63758481 1.2490001 3739937
-0.24722189 -0.63231909 1.248 3347725
-0.24742094 -0.62806857 1.2490001 3280898
-0.24702473 -0.62231433 1.247 3148807
-0.24623142 -0.61855245 1.2490001 3214597
-0.24623142 -0.61498386 1.2490001 3478530
-0.25336856 -0.70538765 1.2490001 2757142
-0.25177714 -0.70188093 1.247 2822691
-0.25177714 -0.69713044 1.247 2822699
-0.25177714 -0.69238001 1.247 2823726
-0.25157428 -0.68707812 1.2460001 2691372
-0.2519781 -0.68342668 1.248 2757945
-0.25178039 -0.67830575 1.2482001 2756639
-0.2509895 -0.65066957 1.2490001 3216645
-0.2509895 -0.64710099 1.2490001 3215626
-0.2509895 -0.64234293 1.2490001 3543555
-0.2509895 -0.63758481 1.2490001 3739913
-0.2509895 -0.63401622 1.2490001 3282184
-0.25574759 -0.70181906 1.2490001 2887972
-0.25654063 -0.69666451 1.2490001 2953772
-0.25693712 -0.69230294 1.2490001 2953779
-0.25693712 -0.68754482 1.2490001 3019044
-0.25693712 -0.6827867 1.2490001 2954013
-0.25654063 -0.67842507 1.2490001 2953484
-0.25654063 -0.67287397 1.2490001 3476742
-0.25693712 -0.6685124 1.2490001 3347458
-0.25654063 -0.66415083 1.2490001 3281676
-0.26209173 -0.69190645 1.2490001 3281432
-0.26169521 -0.68754482 1.2490001 3411993
-0.26169521 -0.6827867 1.2490001 3214880
-0.26169521 -0.67921811 1.2490001 3149359
-0.26050568 -0.66732287 1.2490001 3410690
-0.2652638 -0.69587147 1.2490001 3281164
-0.2652638 -0.69111341 1.2490001 3216140
-0.2652638 -0.68754482 1.2490001 3411978
-0.2652638 -0.6827867 1.2490001 3282442
-0.2652638 -0.67921811 1.2490001 3214856
-0.24387312 -0.6169681 1.2540001 3215114
-0.24960572 -0.66760576 1.2540001 2560007
-0.24960572 -0.66282862 1.2540001 2890755
-0.24960572 -0.65685713 1.2540001 3217922
-0.24721712 -0.61505717 1.2540001 3608833
-0.25318858 -0.66760576 1.2540001 2953990
-0.25438285 -0.66163433 1.2540001 3216658
-0.25318858 -0.65685719 1.2540001 3217154
-0.25836381 -0.70741528 1.2540001 2888213
-0.25915998 -0.70223999 1.2540001 3018781
-0.25915998 -0.67835438 1.2540001 3149840
-0.26393712 -0.70104575 1.2540001 3608335
-0.26234475 -0.69786108 1.2540001 3150361
-0.26234475 -0.67875242 1.2540001 3214361
-0.26154855 -0.67357719 1.2540001 3344388
-0.26751998 -0.70701718 1.2540001 3214085
-0.26632571 -0.70223999 1.2540001 3410695
-0.26632571 -0.69626862 1.2540001 3216399
-0.24340664 -0.61151433 1.2590001 3149854
-0.24580473 -0.6127134 1.2590001 3412242
-0.26379046 -0.71103525 1.2590001 3083548
-0.26379046 -0.70743811 1.2590001 3542281
-0.26259139 -0.70384097 1.2590001 3280918
-0.23936854 -0.59781998 1.263 3282200
-0.24417998 -0.60744286 1.263 3214867
-0.24417998 -0.60142857 1.263 3083824
-0.24297711 -0.5966171 1.263 3345697
-0.24177426 -0.59300858 1.263 3477016
-0.24177426 -0.57737142 1.263 3020057
-0.24177426 -0.57135713 1.263 3280913
-0.24177426 -0.56895143 1.263 3477520
-0.24152377 -0.57603431 1.268 3085842
-0.24112123 -0.56798351 1.268 3281417
-0.24756187 -0.61226285 1.268 3476489
-0.24756187 -0.60743243 1.268 3344911
-0.24349712 -0.56694865 1.2720001 3477508
-0.24269141 -0.56750578 1.2870002 3085587
-0.24636856 -0.56873143 1.2870001 3478288
-0.23729806 -0.55697429 1.291 3084294
-0.23821712 -0.56159997 1.296 3084043
-0.23574853 -0.55172575 1.296 2952963
-0.2365714 -0.54761147 1.296 2822401
-0.23789713 -0.55633241 1.3010001 2952707
-0.23913617 -0.55261528 1.3010001 2560006
-0.23913617 -0.54642004 1.3010001 2888207
-0.23831016 -0.54228991 1.3010001 2755611
-0.23913617 -0.53774673 1.3010001 2427931
-0.24161428 -0.5674839 1.3010001 2822955
-0.24161428 -0.56252766 1.3010001 3084047
-0.24161428 -0.55757147 1.3010001 3085061
-0.24244031 -0.55220228 1.3010001 3019789
-0.24244031 -0.5480721 1.3010001 3085829
-0.24285334 -0.54270291 1.3010001 3084557
-0.24285334 -0.53774673 1.3010001 3214878
-0.24161428 -0.5340296 1.3010001 3018295
-0.24409238 -0.52907336 1.3010001 3412482
-0.24657045 -0.53279054 1.3010001 3673608
-0.24657045 -0.52907336 1.3010001 3608579
-0.24005523 -0.57090861 1.3060001 3018522
-0.24005523 -0.56842101 1.3060001 3084050
-0.24005523 -0.56095815 1.3060001 3019010
-0.24129905 -0.53235054 1.3060001 2887182
-0.24005523 -0.52861911 1.3060001 2296853
-0.24627426 -0.57090861 1.3060001 2954268
-0.24627428 -0.56717718 1.3060001 2953228
-0.24627428 -0.56220198 1.3060001 3477762
-0.24627426 -0.55722666 1.3060001 3347744
-0.24751808 -0.55225146 1.3060001 3479567
-0.24627426 -0.54727626 1.3060001 3478019
-0.24751808 -0.542301 1.3060001 3869706
-0.24751808 -0.53856957 1.3060001 3739148
-0.24503046 -0.53359431 1.3060001 3477265
-0.24585968 -0.52778995 1.3060001 3478024
-0.25000569 -0.56344575 1.3060001 4264452
-0.23847714 -0.50816858 1.3110001 3347458
-0.24347141 -0.53064293 1.3110001 2822663
-0.24180666 -0.52731341 1.3110001 3018264
-0.24180666 -0.52231908 1.3110001 3411972
-0.24097428 -0.51690865 1.3110001 3346179
-0.24846569 -0.55062008 1.3110001 3412738
-0.25096285 -0.57184577 1.3110001 3544337
-0.25096285 -0.56810004 1.3110001 3935237
-0.25096285 -0.54562575 1.3110001 4590610
-0.25096285 -0.54188001 1.3110001 4066590
-0.25096285 -0.53813434 1.3110001 3870479
-0.23437335 -0.48629338 1.3160001 3151385
-0.23938666 -0.5063467 1.3160001 3216386
-0.23938666 -0.50133336 1.3160001 2954241
-0.23813333 -0.49632004 1.3160001 3149586
-0.23813333 -0.49130672 1.3160001 3543053
-0.23687999 -0.48629338 1.3160001 3151650
-0.23687999 -0.48253337 1.3160001 3546147
-0.24439999 -0.5276534 1.3160001 3413255
-0.24439999 -0.52138668 1.3160001 3608836
-0.24314666 -0.5163734 1.3160001 3478275
-0.24189332 -0.51136005 1.3160001 3544065
-0.24314667 -0.5063467 1.3160001 3413509
-0.24314667 -0.50133336 1.3160001 3085073
-0.24690665 -0.5276534 1.3160001 3674888
-0.2319089 -0.43739781 1.3210001 3548189
-0.2319089 -0.43320417 1.3210001 3676939
-0.23778 -0.4818505 1.3210001 3350043
-0.23778 -0.47807622 1.3210001 3153433
-0.23778 -0.47304383 1.3210001 3086090
-0.23610255 -0.46843082 1.3210001 3347719
-0.23610255 -0.4625597 1.3210001 3675911
-0.23610255 -0.4583661 1.3210001 3414790
-0.23526381 -0.4529143 1.3210001 3350539
-0.23526381 -0.44284955 1.3210001 3352336
-0.23526381 -0.43152669 1.3210001 3741957
-0.24281238 -0.49820572 1.3210001 3673617
-0.24281238 -0.49317336 1.3210001 4460045
-0.24155428 -0.48814097 1.3210001 3806241
-0.24113491 -0.48352799 1.3210001 4069151
-0.24029619 -0.47933429 1.3210001 3546656
-0.24029619 -0.47178572 1.3210001 3413505
-0.24532858 -0.51707715 1.3210001 3674884
-0.24532858 -0.51330292 1.3210001 3675649
-0.24532859 -0.49820572 1.3210001 3739415
-0.24532859 -0.49317336 1.3210001 4263437
-0.24532859 -0.48939905 1.3210001 4199685
-0.22226284 -0.34349716 1.3260001 4789514
-0.2218419 -0.33886668 1.3260001 4854809
-0.22857714 -0.41548002 1.3260001 3675915
-0.22857714 -0.41169146 1.3260001 3610638
-0.22857714 -0.4079029 1.3260001 3676673
-0.23278667 -0.4264248 1.3260001 3676944
-0.23236571 -0.4217943 1.3260001 3677461
-0.23236571 -0.41674286 1.3260001 4068616
-0.23110285 -0.41169146 1.3260001 3938329
-0.23194477 -0.40621909 1.3260001 3940353
-0.23194477 -0.40116763 1.3260001 4005641
-0.23236571 -0.39653715 1.3260001 4268818
-0.23110285 -0.39148575 1.3260001 4071937
-0.23867999 -0.4672572 1.3260001 3545861
-0.23867999 -0.45715433 1.3260001 3151878
-0.23615429 -0.45084003 1.3260001 3548171
-0.23615429 -0.44073719 1.3260001 3744806
-0.23741715 -0.4369486 1.3260001 3612964
-0.2378381 -0.43147621 1.3260001 3872260
-0.23867999 -0.4281086 1.3260001 4199426
-0.23615429 -0.42053145 1.3260001 4071712
-0.24373142 -0.48241144 1.3260001 4002323
-0.24246857 -0.47736001 1.3260001 3545364
-0.24288954 -0.47188765 1.3260001 3676418
-0.24120572 -0.4672572 1.3260001 3742466
-0.24204762 -0.46178478 1.3260001 3741698
-0.24288954 -0.45757529 1.3260001 3741188
-0.24878286 -0.49125144 1.3260001 4461833
-0.24751998 -0.48746288 1.3260001 4264452
-0.24709903 -0.4828324 1.3260001 4133641
-0.24625713 -0.47104573 1.3260001 3872004
-0.21929809 -0.35113049 1.3310001 4134924
-0.21929809 -0.34859526 1.3310001 4330510
-0.22436857 -0.38155335 1.3310001 4201488
-0.22436857 -0.37775052 1.3310001 3806480
-0.22436857 -0.37268001 1.3310001 3872282
-0.22436857 -0.36760953 1.3310001 3807747
-0.22352348 -0.36296162 1.3310001 4136200
-0.22310095 -0.35746861 1.3310001 4265737
-0.22310095 -0.3523981 1.3310001 4201735
-0.22310095 -0.34859526 1.3310001 4462083
-0.22690381 -0.38662383 1.3310001 4070417
-0.22817142 -0.38408861 1.3310001 4529172
-0.22690381 -0.36760953 1.3310001 4135940
-0.22690381 -0.36127144 1.3310001 4463110
-0.22690381 -0.35746861 1.3310001 4529414
-0.22690381 -0.3523981 1.3310001 4398605
-0.23450953 -0.42465243 1.3310001 3874602
-0.23450953 -0.41197622 1.3310001 4266505
-0.23450953 -0.40944096 1.3310001 4136961
-0.23450953 -0.40437049 1.3310001 4135426
-0.23197427 -0.38915908 1.3310001 4135938
-0.23958001 -0.45000479 1.3310001 3678213
-0.23958001 -0.44746953 1.3310001 3809543
-0.23958001 -0.4436667 1.3310001 3875088
-0.23704477 -0.42972291 1.3310001 3938563
-0.24465048 -0.4702867 1.3310001 3939331
-0.24465048 -0.46648383 1.3310001 4004097
-0.24211524 -0.45761049 1.3310001 3414531
-0.24211524 -0.44746953 1.3310001 4268033
-0.24845333 -0.48169526 1.3310001 4068360
-0.24718571 -0.47662479 1.3310001 3872005
-0.22139429 -0.33718094 1.3360001 4789276
-0.22012191 -0.33463621 1.3360001 4855583
-0.22775619 -0.38171428 1.3360001 4594183
-0.22775619 -0.37662479 1.3360001 4200737
-0.22775619 -0.37280765 1.3360001 4266519
-0.22775619 -0.36517337 1.3360001 4267016
-0.23284572 -0.38807619 1.3360001 4200450
-0.23030095 -0.38171428 1.3360001 5117956
-0.23114921 -0.37620068 1.3360002 4594188
-0.23030095 -0.37280765 1.3360001 4659983
-0.23793523 -0.42752001 1.3360001 4071216
-0.24047999 -0.45678478 1.3360001 3283719
-0.24047999 -0.45424002 1.3360001 3546374
-0.24047999 -0.42879239 1.3360001 4396561
-0.2177022 -0.33187875 1.342 5053462
-0.21727617 -0.32719237 1.342 4793119
-0.21599808 -0.32208002 1.342 4991783
-0.21855426 -0.31057712 1.342 4660001
-0.22111046 -0.33358285 1.342 5117205
-0.23389141 -0.38726285 1.342 4658946
-0.24411616 -0.4588362 1.342 3610625
-0.24667238 -0.4588362 1.342 3872257
-0.21338192 -0.31258956 1.3470001 4859685
-0.21936858 -0.32328004 1.3470001 4988470
-0.21851334 -0.31772098 1.3470001 4858910
-0.21765812 -0.31344479 1.3470001 4794658
-0.21680287 -0.30916858 1.3470001 4727589
-0.22193429 -0.33226004 1.3470001 4460299
-0.22193429 -0.32841146 1.3470001 4133411
-0.22193429 -0.3143 1.3470001 4067864
-0.23476286 -0.38614002 1.3470001 5117697
-0.23476286 -0.38229147 1.3470001 4855297
-0.24502574 -0.45669717 1.3470001 3873025
-0.20473143 -0.27812576 1.3520001 4534042
-0.20473143 -0.27426288 1.3520001 4731169
-0.20473143 -0.26653716 1.3520001 4011084
-0.20473143 -0.26396194 1.3520001 3421991
-0.2098819 -0.30001524 1.3520001 4073234
-0.20730667 -0.29228956 1.3520001 4334628
-0.20730667 -0.2884267 1.3520001 4401427
-0.20859429 -0.27297527 1.3520001 3550225
-0.20859428 -0.26911241 1.3520001 3480335
-0.21245714 -0.30645335 1.3520001 4859157
-0.21245714 -0.30259049 1.3520001 4860190
-0.21631999 -0.30774096 1.3520001 4530460
-0.21503238 -0.30259049 1.3520001 4597018
-0.2227581 -0.32576764 1.3520001 5116206
-0.2227581 -0.32319239 1.3520001 5049904
-0.22533333 -0.33220571 1.3520001 5378828
-0.22533333 -0.32705528 1.3520001 5514539
-0.22533333 -0.32319239 1.3520001 5512487
-0.20822665 -0.28582668 1.358 4532753
-0.20822665 -0.28194666 1.358 4402200
-0.20822665 -0.27806666 1.358 4338723
-0.20822665 -0.26642668 1.358 2753825
-0.20693332 -0.26254669 1.358 2169096
-0.20563999 -0.25996 1.358 2764035
-0.21339999 -0.30134666 1.358 4860187
-0.21210666 -0.29746667 1.358 5056272
-0.21081331 -0.29229334 1.358 4729370
-0.21081331 -0.28841335 1.358 4795403
-0.21081331 -0.27806666 1.358 3484714
-0.21727999 -0.30652002 1.358 4334362
-0.21771112 -0.3022089 1.3580002 4464156
-0.21598665 -0.29876 1.358 4922925
-0.22374666 -0.32203999 1.358 4984863
-0.22374666 -0.31945333 1.358 4526607
-0.22115998 -0.30393332 1.358 4659735
-0.22633332 -0.32203999 1.358 5443093
-0.22633332 -0.29229334 1.358 5118209
-0.22633332 -0.28841335 1.358 4987393
-0.20639713 -0.25702286 1.363 1772550
-0.2141857 -0.29336953 1.363 5123092
-0.2133203 -0.28774446 1.3630002 5122829
-0.2124549 -0.28255206 1.3630002 4006935
-0.2141857 -0.27779239 1.363 2162964
-0.21851268 -0.29812923 1.3630002 4790553
-0.21807998 -0.29336953 1.363 4791051
-0.21807998 -0.28947523 1.363 4856842
-0.22457047 -0.3050524 1.363 4920588
-0.22327237 -0.3024562 1.363 4724748
-0.22283968 -0.29812923 1.3630002 4855814
-0.22327238 -0.29336953 1.363 4921345
-0.22327238 -0.28817713 1.363 4790529
-0.22716665 -0.29856193 1.363 5052417
-0.21497141 -0.28532574 1.368 4466187
-0.21757713 -0.2866286 1.368 4660740
-0.21757713 -0.28141713 1.368 3081225
-0.22278856 -0.30877715 1.368 4660256
-0.22018284 -0.2866286 1.368 4463106
-0.22539426 -0.30096 1.368 4856325
-0.19306001 -0.14315335 1.3790001 4788481
-0.19831333 -0.19306003 1.3790001 4528174
-0.20094 -0.19831336 1.3790001 4265473
-0.17807145 -0.11739525 1.3850001 5116190
-0.17719209 -0.1086016 1.3850001 5049099
-0.18070953 -0.11739525 1.3850001 4919826
-0.18070953 -0.11343811 1.3850001 4919831
-0.19258095 -0.19258098 1.3850001 4000007
-0.1939 -0.18598574 1.3850001 4131073
-0.19258097 -0.15300955 1.3850001 4721928
-0.19258097 -0.14773335 1.3850001 4854531
-0.19214129 -0.1420175 1.3850001 4788737
-0.19741745 -0.19214131 1.3850001 4789780
-0.19653809 -0.18730479 1.3850001 4525826
-0.19653811 -0.1516905 1.3850001 4919827
-0.19653811 -0.14773335 1.3850001 4985861
-0.19653811 -0.14377621 1.3850001 4855553
-0.20972857 -0.25193813 1.3850001 524549
-0.17341906 -0.10193335 1.3900001 5180702
-0.17253652 -0.097520657 1.3900001 4852996
-0.17606668 -0.10722859 1.3900001 5114903
-0.17694923 -0.10369842 1.3900001 5049622
-0.17606668 -0.097961925 1.3900001 4984579
-0.18400954 -0.1363524 1.3900001 4722698
-0.18312702 -0.13193971 1.3900001 4722956
-0.18268573 -0.12708573 1.3900001 4919815
-0.18268573 -0.12179049 1.3900001 4854277
-0.18400954 -0.11649525 1.3900001 4788743
-0.18930478 -0.16812384 1.3900001 3934210
-0.18930478 -0.16150479 1.3900001 4327431
-0.18665716 -0.14164764 1.3900001 4591361
-0.1875397 -0.13811749 1.3900001 4722947
-0.18665716 -0.13238098 1.3900001 4330249
-0.18665716 -0.12708573 1.3900001 4722438
-0.1875397 -0.12223176 1.3900001 4787970
-0.18665716 -0.11781906 1.3900001 4723205
-0.19283493 -0.18842226 1.3900001 3998978
-0.19327618 -0.18268575 1.3900001 4064770
-0.1932762 -0.1773905 1.3900001 3933955
-0.19283493 -0.17253654 1.3900001 3999496
-0.1932762 -0.16680004 1.3900001 3869185
-0.19327621 -0.16150479 1.3900001 4393474
-0.1932762 -0.15753336 1.3900001 4656388
-0.1932762 -0.13900003 1.3900001 4920577
-0.19989523 -0.18798099 1.3900001 4461315
-0.19813016 -0.18312703 1.3900001 4264451
-0.19724762 -0.17871431 1.3900001 4200974
-0.19724764 -0.16547622 1.3900001 4264705
-0.19724764 -0.16018099 1.3900001 4984577
-0.19724764 -0.15753336 1.3900001 4918786
-0.19724764 -0.15488574 1.3900001 4853770
-0.21313334 -0.2502 1.3900001 1310978
-0.16884953 -0.089078106 1.396 3869442
-0.16884953 -0.070464768 1.396 3607041
-0.16796319 -0.066919379 1.3960001 3737601
-0.16884953 -0.062487625 1.396 3803393
-0.16884953 -0.059828579 1.396 3803393
-0.17150857 -0.093066677 1.396 4131841
-0.17150857 -0.057169531 1.396 4195073
-0.17239492 -0.052737787 1.3960001 4326658
-0.17283809 -0.047862865 1.396 4261633
-0.17328128 -0.042987946 1.3960001 4131329
-0.17682667 -0.042544767 1.396 4917761
-0.19145143 -0.13694097 1.396 4723457
-0.1901219 -0.13295241 1.396 4461575
-0.19100825 -0.12719113 1.3960001 4788230
-0.19809903 -0.17682669 1.396 4199175
-0.19543999 -0.17150858 1.396 4460801
-0.19809905 -0.16884954 1.396 4593153
-0.19809905 -0.16353145 1.396 4591873
-0.20075808 -0.18214478 1.396 4331279
-0.20075808 -0.17948574 1.396 4265244
-0.21405333 -0.25659811 1.396 524550
-0.21405333 -0.25393906 1.396 917764
-0.2180419 -0.25127998 1.396 1442055
-0.25127998 -0.20873524 1.396 5509388
-0.16957524 -0.086790487 1.4020001 3607041
-0.16957524 -0.082784772 1.4020001 3410177
-0.16957524 -0.077443816 1.4020001 3083265
-0.16957524 -0.073438101 1.4020001 3344641
-0.17491619 -0.093466677 1.4020001 4460290
-0.17224571 -0.089460962 1.4020001 3803907
-0.17313588 -0.071657792 1.4020002 3605762
-0.17224571 -0.066761918 1.4020001 3802115
-0.17313588 -0.060975883 1.4020002 4130817
-0.17491619 -0.057415247 1.4020001 4458497
-0.17491619 -0.054744773 1.4020001 4523777
-0.17758667 -0.057415247 1.4020001 4724502
-0.17758667 -0.053409532 1.4020001 4853766
-0.17758667 -0.048068583 1.4020001 4852994
-0.17758667 -0.037386674 1.4020001 4787201
-0.17758667 -0.032045722 1.4020001 4721153
-0.17758667 -0.02670477 1.4020001 4787207
-0.17758667 -0.021363817 1.4020001 4524547
-0.18025714 -0.04139239 1.4020001 5381377
-0.18025714 -0.02670477 1.4020001 5380619
-0.18025714 -0.017358104 1.4020001 5384705
-0.18025714 -0.014687628 1.4020001 5253377
-0.19360954 -0.13485907 1.4020001 4658691
-0.19895047 -0.17358096 1.4020001 4788993
-0.21764381 -0.25503048 1.4020001 983300
-0.22164951 -0.25503048 1.4020001 1310993
-0.27906477 -0.27639431 1.4020001 7094551
-0.17286 -0.087100007 1.4070001 3672578
-0.17286 -0.083080009 1.4070001 3475713
-0.17286 -0.077720009 1.4070001 2886145
-0.17822 -0.092460014 1.4070001 4854797
-0.17554 -0.08978001 1.4070001 4264453
-0.17643332 -0.082633346 1.4070001 4395778
-0.17688 -0.077720009 1.4070001 4331521
-0.17732668 -0.072806679 1.4070001 4462851
-0.17688 -0.067000009 1.4070001 4659208
-0.17732668 -0.062086679 1.4070001 4592900
-0.18090001 -0.065660007 1.4070001 5056780
-0.18090001 -0.060300007 1.4070001 4924182
-0.18090001 -0.057620011 1.4070001 5120300
-0.18090001 -0.05360001 1.4070001 5250571
-0.18090001 -0.048240006 1.4070001 5184260
-0.18090001 -0.044220012 1.4070001 5380611
-0.18090001 -0.037520006 1.4070001 5316609
-0.18224001 -0.032160006 1.4070001 5578497
-0.18358 -0.026800008 1.4070001 5971207
-0.18223999 -0.021440007 1.4070001 5775619
-0.18358 -0.017420007 1.4070001 6696961
-0.18268667 -0.012953342 1.4070001 6040323
-0.18224001 -0.009380009 1.4070001 5774345
-0.18090001 -0.0026800081 1.4070001 5184264
-0.18626001 -0.026800008 1.4070001 6235138
-0.1876 -0.021440007 1.4070001 6237186
-0.18760002 -0.017420007 1.4070001 6500609
-0.18626001 -0.013400009 1.4070001 6566145
-0.18626001 0.014739993 1.4070001 7421957
-0.18626001 0.017419992 1.4070001 7290887
-0.19430001 -0.13266002 1.4070001 4791558
-0.19430001 -0.12998001 1.4070001 4919815
-0.19698001 -0.13668002 1.4070001 4658945
-0.20233999 -0.17688002 1.4070001 4395527
-0.20233999 -0.17152001 1.4070001 4724993
-0.20234001 -0.16750003 1.4070001 4463105
-0.20234001 -0.16482002 1.4070001 4461313
-0.32830003 -0.20234002 1.4070001 4728081
-0.33187336 -0.19787337 1.4070001 4657414
-0.33634001 -0.19832002 1.4070001 5249285
-0.36850002 -0.14874001 1.4070001 5975820
-0.36850002 -0.14338003 1.4070001 5975566
-0.37118 -0.14204003 1.4070001 6174747
-0.37118 -0.13802002 1.4070001 7293217
-0.17898001 -0.090162866 1.4130001 4724504
-0.1776343 -0.08747144 1.4130001 4331016
-0.17898001 -0.084780008 1.4130001 4724994
-0.18167144 -0.06863144 1.4130001 4991255
-0.18167144 -0.063248582 1.4130001 4990465
-0.18436286 -0.041717153 1.4130001 5841923
-0.18436286 -0.037680011 1.4130001 5842945
-0.18301715 -0.0067285798 1.4130001 5775112
-0.18436286 -0.0026914368 1.4130001 6764298
-0.18436286 0.0026914205 1.4130001 6828040
-0.18436286 0.008074278 1.4130001 7092485
-0.18436286 0.012111421 1.4130001 7356434
-0.18436286 0.01749428 1.4130001 7029516
-0.18346572 0.021979995 1.4130001 6304023
-0.18346572 0.02646571 1.4130001 6894354
-0.18436286 0.030951422 1.4130001 6237710
-0.18795145 -0.032745726 1.4130001 5974017
-0.18795145 -0.0085228672 1.4130001 6567173
-0.18705429 -0.0026914368 1.4130001 6632460
-0.18705429 0.0040371348 1.4130001 6632965
-0.18840002 0.008074278 1.4130001 6829836
-0.18884858 0.013008564 1.4130001 7158033
-0.18974572 0.01749428 1.4130001 7615254
-0.1884 0.020185709 1.4130001 7618098
-0.18705429 0.028259994 1.4130001 8541228
-0.18705429 0.032297138 1.4130001 7818770
-0.18705429 0.037679996 1.4130001 6769411
-0.18705429 0.043062851 1.4130001 5383684
-0.1884 0.047099993 1.4130001 6888722
-0.19243716 0.0094199926 1.4130001 6895406
-0.19243716 0.013457135 1.4130001 7025964
-0.19243716 0.017494278 1.4130001 7615270
-0.19512857 0.060557142 1.4130001 10119726
-0.21935143 -0.25972286 1.4130001 590082
-0.22338857 -0.25972286 1.4130001 852233
-0.23011714 -0.25972286 1.4130001 1638662
-0.27318001 -0.27856287 1.4130001 5713669
-0.27856287 -0.28125429 1.4130001 7161114
-0.27721715 -0.27721715 1.4130001 7356422
-0.28125429 -0.27587143 1.4130001 7094543
-0.28260002 -0.27183431 1.4130001 7289608
-0.28663716 -0.27183431 1.4130001 7487003
-0.28798288 -0.26645142 1.4130001 7226673
-0.31220573 -0.23011717 1.4130001 6768134
-0.31624287 -0.23011717 1.4130001 7291919
-0.31624287 -0.2233886 1.4130001 7030018
-0.32162574 -0.21800573 1.4130001 6241796
-0.32162574 -0.2126229 1.4130001 4397313
-0.3283543 -0.21127717 1.4130001 5053441
-0.3283543 -0.20724003 1.4130001 4925187
-0.33239144 -0.20724003 1.4130001 5316106
-0.33239144 -0.20320289 1.4130001 5055009
-0.33508289 -0.20589431 1.4130001 5643277
-0.33508289 -0.20185716 1.4130001 5249297
-0.33777431 -0.19512859 1.4130001 5381122
-0.33777431 -0.19243717 1.4130001 4858114
-0.33777431 -0.18974574 1.4130001 4335873
-0.34046572 -0.19243717 1.4130001 5383170
-0.34046572 -0.18840002 1.4130001 5056769
-0.34584859 -0.18301716 1.4130001 5447942
-0.34674573 -0.17718573 1.4130001 5056770
-0.35392287 -0.17628859 1.4130001 5581313
-0.35392287 -0.17359716 1.4130001 5711623
-0.36379147 -0.15296288 1.4130001 5909251
-0.36738002 -0.15206574 1.4130001 5910025
-0.36738002 -0.1480286 1.4130001 5842950
-0.37007147 -0.15206574 1.4130001 5975311
-0.37141716 -0.14668289 1.4130001 6042129
-0.37007147 -0.14130002 1.4130001 6040081
-0.37007147 -0.1386086 1.4130001 6566932
-0.3768 -0.11842288 1.4130001 7755041
-0.38083717 -0.10765716 1.4130001 8148013
-0.18784857 -0.037840009 1.419 5908994
-0.18784857 0.0013514203 1.419 6697993
-0.18784857 0.022974279 1.419 8148565
-0.18784857 0.025677135 1.419 9004096
-0.18784857 0.051354278 1.419 5046529
-0.18649714 0.056759991 1.419 3932931
-0.19145238 0.038290471 1.419 9856816
-0.19190286 0.04324571 1.419 9265218
-0.19325429 0.047299992 1.419 9205823
-0.19145238 0.050903801 1.419 7813396
-0.19055143 0.056759991 1.419 5243138
-0.19055143 0.062165707 1.419 3539201
-0.19595714 0.044597134 1.419 9660755
-0.19595714 0.047299992 1.419 9988163
-0.19595714 0.050002851 1.419 9987891
-0.21757998 -0.26352859 1.419 327944
-0.22163428 -0.26352859 1.419 524545
-0.22703998 -0.26217717 1.419 1310981
-0.23379712 -0.26352859 1.419 1442051
-0.26893428 -0.19325431 1.419 5839634
-0.27298856 -0.28244859 1.419 7292688
-0.27253813 -0.27794382 1.419 3081989
-0.27704287 -0.28244859 1.419 7161107
-0.29055715 -0.27163714 1.419 7422007
-0.29326001 -0.26623142 1.419 7094321
-0.29326001 -0.26082572 1.419 7028760
-0.29596287 -0.25677142 1.419 7290633
-0.29776478 -0.25181621 1.419 6830342
-0.30272001 -0.25001431 1.419 7685383
-0.30407143 -0.24731144 1.419 7357704
-0.30407143 -0.11352002 1.419 6101011
-0.30677429 -0.24731144 1.419 7292174
-0.30767524 -0.24280669 1.419 6898702
-0.30947715 -0.23785146 1.419 7095574
-0.31218001 -0.23785146 1.419 7029796
-0.31353146 -0.23379715 1.419 7228441
-0.31758571 -0.23920287 1.419 6897476
-0.31758571 -0.23379715 1.419 7157809
-0.32569429 -0.21352573 1.419 5053185
-0.3446143 -0.18649715 1.419 5252097
-0.3446143 -0.18244287 1.419 4858113
-0.35001999 -0.18244287 1.419 5448461
-0.35001999 -0.17974001 1.419 5319943
-0.35272285 -0.17298287 1.419 5777925
-0.35272285 -0.16622573 1.419 4724481
-0.35542575 -0.17163144 1.419 5582094
-0.3563267 -0.16712667 1.419 5383683
-0.3563267 -0.16262192 1.419 4856577
-0.36894 -0.13649429 1.419 5976608
-0.36894 -0.13379145 1.419 5719330
-0.3729943 -0.13649429 1.419 7751210
-0.37164286 -0.13244002 1.419 7030594
-0.37344477 -0.12658381 1.419 7423536
-0.37840003 -0.12298001 1.419 8017721
-0.38245428 -0.12027716 1.419 7623500
-0.38245428 -0.1175743 1.419 7951448
-0.38245428 -0.11352002 1.419 8344904
-0.38245428 -0.10270859 1.419 6900506
-0.38515714 -0.1081143 1.419 8670514
-0.38515714 -0.10270859 1.419 8410658
-0.18728572 -0.043428581 1.4250001 5777157
-0.19135715 -0.036642868 1.4250001 5908738
-0.19407144 0.052928567 1.4250001 8481044
-0.19407144 0.056999993 1.4250001 7692292
-0.19407144 0.062428564 1.4250001 6836737
-0.1927143 0.067857139 1.4250001 4328705
-0.19407144 0.073285714 1.4250001 5571073
-0.19678573 0.056999993 1.4250001 10054955
-0.19950001 0.067857139 1.4250001 10188619
-0.19769049 0.072833337 1.4250001 8474172
-0.19678573 0.077357143 1.4250001 4660225
-0.22392857 -0.26735714 1.4250001 655619
-0.22935714 -0.26464286 1.4250001 1376514
-0.23478571 -0.27007145 1.4250001 917761
-0.23342857 -0.26735714 1.4250001 1114370
-0.23207143 -0.26464286 1.4250001 1376516
-0.25378573 -0.29314286 1.4250001 6374148
-0.25242859 -0.28907144 1.4250001 3153416
-0.25740477 -0.28726193 1.4250001 3739397
-0.26328573 -0.28364286 1.4250001 2621697
-0.26735714 -0.28364286 1.4250001 4397070
-0.27278572 -0.28635716 1.4250001 7097381
-0.27007145 -0.28364286 1.4250001 5845788
-0.27007145 -0.19135717 1.4250001 5511693
-0.27097622 -0.18683337 1.4250001 5510663
-0.27278572 -0.18321431 1.4250001 5708801
-0.2764048 -0.18140477 1.4250001 5906690
-0.29449999 -0.26464286 1.4250001 7028523
-0.29449999 -0.13978574 1.4250001 5773574
-0.2972143 -0.26192859 1.4250001 7093276
-0.30264288 -0.25378573 1.4250001 7423495
-0.30807143 -0.25107142 1.4250001 7620114
-0.30626193 -0.10902382 1.4250001 5905927
-0.31078571 -0.24564289 1.4250001 7029278
-0.31350002 -0.24292859 1.4250001 7029808
-0.31621429 -0.24157144 1.4250001 7029812
-0.31757146 -0.23750003 1.4250001 7029319
-0.35421431 -0.18050002 1.4250001 5451023
-0.35421431 -0.17778572 1.4250001 5646593
-0.35964289 -0.16150002 1.4250001 5647361
-0.36235714 -0.15878573 1.4250001 5711617
-0.37864286 -0.12621431 1.4250001 8149044
-0.38678575 -0.11264288 1.4250001 8407869
-0.38949999 -0.1072143 1.4250001 8474681
-0.38949999 -0.10178573 1.4250001 8280103
-0.38678575 -0.097714305 1.4250001 8215065
-0.38949999 -0.092285737 1.4250001 7689744
-0.40714288 -0.013571448 1.4250001 7887160
-0.40578571 -0.0081428755 1.4250001 8476995
-0.41121429 -0.014928591 1.4250001 8675352
-0.1976143 0.053151425 1.4310001 9987887
-0.1976143 0.064054281 1.4310001 10183463
-0.1976143 0.068142854 1.4310001 9919270
-0.20034 0.074957147 1.4310001 6052660
-0.20034 0.07768286 1.4310001 3280385
-0.20034 0.081771426 1.4310001 852229
-0.20034 0.087222852 1.4310001 1966341
-0.21942 -0.27257144 1.4310001 327942
-0.21942 -0.26848286 1.4310001 131334
-0.22350858 -0.27257144 1.4310001 524552
-0.22214572 -0.26848286 1.4310001 393475
-0.22759715 -0.27257144 1.4310001 655620
-0.22759715 -0.26848286 1.4310001 852227
-0.23168571 -0.27257144 1.4310001 721153
-0.23032285 -0.26848286 1.4310001 1114371
-0.23713715 -0.27666 1.4310001 917761
-0.23713715 -0.2739343 1.4310001 786689
-0.24395142 -0.2834743 1.4310001 1179907
-0.24122572 -0.27802286 1.4310001 1114369
-0.24804001 -0.29574004 1.4310001 6635795
-0.24804001 -0.29165143 1.4310001 3016475
-0.24804001 -0.28756288 1.4310001 1704197
-0.24804001 -0.28483716 1.4310001 1573123
-0.25303715 -0.2975572 1.4310001 7096842
-0.25212857 -0.29301432 1.4310001 4857368
-0.25349143 -0.28756288 1.4310001 2359554
-0.25212857 -0.28483716 1.4310001 1966338
-0.25758001 -0.29574004 1.4310001 7226135
-0.25758001 -0.29301432 1.4310001 6112537
-0.26166859 -0.29028857 1.4310001 6108442
-0.26303145 -0.28756288 1.4310001 4260097
-0.26575714 -0.29028857 1.4310001 6769953
-0.26575714 -0.28756288 1.4310001 4986881
-0.27120858 -0.28756288 1.4310001 6373175
-0.28483716 -0.16354288 1.4310001 5446147
-0.28483716 -0.15809146 1.4310001 5115909
-0.28756288 -0.16763146 1.4310001 6169359
-0.28756288 -0.16218004 1.4310001 5840644
-0.28756288 -0.15809146 1.4310001 5642248
-0.29028857 -0.16763146 1.4310001 6562321
-0.29028857 -0.15945432 1.4310001 6234139
-0.29846576 -0.26575714 1.4310001 7027501
-0.30119145 -0.26575714 1.4310001 7027254
-0.30210003 -0.26121432 1.4310001 7158302
-0.30255431 -0.25758001 1.4310001 7290640
-0.30936861 -0.10766574 1.4310001 6039049
-0.30800575 -0.10357717 1.4310001 5907216
-0.30664289 -0.098125733 1.4310001 5840135
-0.30936861 -0.09403716 1.4310001 6169862
-0.31482002 -0.24667718 1.4310001 7028785
-0.31345719 -0.10766574 1.4310001 6367239
-0.36388287 -0.16354288 1.4310001 5711361
-0.36751717 -0.15854575 1.4310001 5776393
-0.39114001 -0.10494003 1.4310001 8410160
-0.3920486 -0.097671449 1.4310001 8214574
-0.39386573 -0.0926743 1.4310001 8411172
-0.3920486 -0.086768597 1.4310001 6830086
-0.39386573 -0.083134308 1.4310001 7878410
-0.39114001 0.020442842 1.4310001 9000265
-0.39659145 -0.096762873 1.4310001 8409665
-0.39659145 -0.09403716 1.4310001 8606011
-0.39659145 -0.081771448 1.4310001 8085007
-0.39659145 -0.077682883 1.4310001 7885318
-0.39659145 -0.073594302 1.4310001 5781249
-0.39795431 -0.068142876 1.4310001 5379081
-0.39931715 0.0068142689 1.4310001 8936977
-0.40340573 -0.068142876 1.4310001 8147747
-0.40340573 -0.06269145 1.4310001 7227926
-0.40340573 -0.057240024 1.4310001 6694926
-0.40476859 -0.0027257323 1.4310001 9198147
-0.40476859 0.0013628396 1.4310001 9066828
-0.40204287 0.0068142684 1.4310001 8935966
-0.40749434 -0.068142876 1.4310001 8541743
-0.40749434 -0.06269145 1.4310001 8542802
-0.40749434 -0.057240024 1.4310001 8412465
-0.40749434 -0.051788595 1.4310001 7426565
-0.40749434 -0.042248592 1.4310001 3671041
-0.40749434 -0.038160022 1.4310001 3014913
-0.40749434 -0.032708593 1.4310001 3146498
-0.41022006 -0.06269145 1.4310001 8476232
-0.41112861 -0.056785744 1.4310001 8476469
-0.41158289 -0.053151451 1.4310001 8607521
-0.41203719 -0.038614307 1.4310001 4993537
-0.41158289 -0.031345736 1.4310001 4267009
-0.41158289 -0.027257163 1.4310001 4791600
-0.41158289 -0.021805733 1.4310001 7158331
-0.41158289 -0.017717162 1.4310001 8738861
-0.41567147 -0.028620021 1.4310001 9133367
-0.41567147 -0.021805733 1.4310001 9068610
-0.41567147 -0.017717162 1.4310001 8609844
-0.20391715 0.069797136 1.437 10573385
-0.20391715 0.072534278 1.437 7157812
-0.20391715 0.076639995 1.437 2887181
-0.20391715 0.082114287 1.437 327939
-0.20391715 0.087588564 1.437 1245443
-0.22307713 -0.27781999 1.437 1048858
-0.22718285 -0.27781999 1.437 852231
-0.2340257 -0.28055716 1.437 1114369
-0.23265713 -0.27781999 1.437 852225
-0.23949999 -0.30245429 1.437 4921601
-0.23949999 -0.29424286 1.437 3212033
-0.2385876 -0.28694379 1.437 1245441
-0.23813142 -0.28192574 1.437 1114369
-0.24360569 -0.30245429 1.437 5312526
-0.24360569 -0.29834855 1.437 5443077
-0.24360569 -0.29287428 1.437 2294274
-0.2431495 -0.28785619 1.437 983297
-0.24223712 -0.28329429 1.437 917762
-0.24771142 -0.30245429 1.437 6242831
-0.24771142 -0.29971713 1.437 6374150
-0.25044858 -0.29971713 1.437 6703620
-0.26139715 -0.29697999 1.437 7094824
-0.26276571 -0.29424286 1.437 6572083
-0.26869619 -0.29333049 1.437 6966328
-0.26960859 -0.28876856 1.437 5713948
-0.27234572 -0.29150569 1.437 6966327
-0.28876856 -0.15328002 1.437 5181443
-0.29150569 -0.15191145 1.437 5642246
-0.29150569 -0.1491743 1.437 5248003
-0.31340286 -0.10538001 1.437 6236176
-0.31203431 -0.098537162 1.437 6236175
-0.31249049 -0.092606679 1.437 6432520
-0.31066573 -0.088957153 1.437 6169349
-0.31705242 -0.092606679 1.437 6760976
-0.31796479 -0.088044778 1.437 6630430
-0.31887716 -0.082114309 1.437 6630935
-0.31887716 -0.076640017 1.437 6565131
-0.3216143 -0.091694295 1.437 7089951
-0.35446 0.062954269 1.437 9396806
-0.35446 0.067059986 1.437 9592883
-0.35993427 0.058848556 1.437 9594717
-0.35856572 0.062954269 1.437 9856329
-0.35719714 0.067059986 1.437 9724199
-0.36267143 0.058848556 1.437 9397587
-0.3681457 -0.16286002 1.437 5775117
-0.37088287 -0.16286002 1.437 5775642
-0.38730574 0.028739983 1.437 9330253
-0.39551714 -0.099905729 1.437 8148273
-0.39825431 -0.091694295 1.437 8541238
-0.39734194 -0.088044778 1.437 8476447
-0.39688572 0.0082114115 1.437 8609049
-0.39688572 0.012317126 1.437 9002042
-0.39642954 0.01596665 1.437 8870975
-0.40236002 -0.076640017 1.437 8999206
-0.40236002 -0.0725343 1.437 8735778
-0.40236002 -0.0027371605 1.437 8279359
-0.40236002 0.0027371251 1.437 8936766
-0.40099144 0.0095799826 1.437 8936741
-0.40099144 0.012317126 1.437 8870970
-0.40099144 0.015054268 1.437 8871244
-0.40920287 -0.075271443 1.437 8541234
-0.40783429 -0.0725343 1.437 8476202
-0.40920287 -0.04653145 1.437 5052673
-0.40646571 0.0041056965 1.437 8870457
-0.41330856 -0.050637163 1.437 8738088
-0.41330856 -0.04653145 1.437 8476451
-0.41330856 -0.042425733 1.437 6438401
-0.41194001 -0.036951445 1.437 2883841
-0.41330856 -0.034214303 1.437 4399105
-0.41741428 -0.036951445 1.437 9133600
-0.41741428 -0.032845732 1.437 9396262
-0.41741428 -0.026002876 1.437 9197895
-0.20751715 0.082457133 1.4430001 393473
-0.20751715 0.087954283 1.4430001 1114369
-0.22950572 -0.28172857 1.4430001 1048833
-0.23225428 -0.29822001 1.4430001 3541251
-0.23225428 -0.28310287 1.4430001 1114369
-0.23637713 -0.30096859 1.4430001 4462337
-0.23637713 -0.29684573 1.4430001 3606273
-0.23637713 -0.29272285 1.4430001 2031873
-0.23591904 -0.28905815 1.4430002 1507585
-0.23500285 -0.28447714 1.4430001 1179905
-0.24049999 -0.30096859 1.4430001 4853761
-0.24049999 -0.29822001 1.4430001 4786433
-0.24049999 -0.29272285 1.4430001 1638657
-0.30921429 0.11269142 1.4430001 9792834
-0.30921429 0.11681428 1.4430001 10119732
-0.31471145 -0.087954305 1.4430001 6498833
-0.31287909 0.11314951 1.4430002 9922367
-0.31196287 0.11681428 1.4430001 10118971
-0.31746 -0.086580016 1.4430001 6564902
-0.31746 -0.082457155 1.4430001 6433815
-0.34769428 0.07146284 1.4430001 9854539
-0.34769428 0.075585701 1.4430001 9723722
-0.35181716 0.067339987 1.4430001 9067852
-0.35135907 0.071004748 1.4430002 9592897
-0.36143717 0.056345701 1.4430001 8807264
-0.3669343 0.050848559 1.4430001 8674395
-0.37243143 0.042602845 1.4430001 8222019
-0.37243143 0.045351416 1.4430001 8807992
-0.37655431 0.038479988 1.4430001 9262896
-0.37655431 0.042602845 1.4430001 9461303
-0.38159335 0.03252475 1.4430002 9200427
-0.38067716 0.038479988 1.4430001 9394484
-0.38892287 0.021988554 1.4430001 8149585
-0.38892287 0.026111413 1.4430001 9592144
-0.39167145 0.023362841 1.4430001 9328733
-0.40266573 -0.087954305 1.4430001 8477235
-0.40266573 -0.082457155 1.4430001 8673316
-0.40541431 -0.086580016 1.4430001 8474942
-0.40541431 -0.082457155 1.4430001 8539961
-0.40816286 -0.07696002 1.4430001 8540214
-0.20838001 0.07728 1.4490001 1573121
-0.22494 -0.28566003 1.4490001 2229251
-0.22494 -0.28290001 1.4490001 1638670
-0.22770001 -0.28566003 1.4490001 1179906
-0.22770001 -0.28290001 1.4490001 1048839
-0.23322001 -0.29670003 1.4490001 2687494
-0.23322001 -0.29256001 1.4490001 1638658
-0.23184 -0.28704002 1.4490001 1114369
-0.30498004 0.11729999 1.4490001 9858350
-0.30774 0.11729999 1.4490001 9988910
-0.31326002 0.10901999 1.4490001 9398093
-0.31878003 0.10212 1.4490001 8806710
-0.31740004 0.10763998 1.4490001 9596225
-0.31740004 0.11178 1.4490001 9922131
-0.32246003 0.10166 1.4490001 9464376
-0.32154003 0.10625999 1.4490001 9857583
-0.32798001 -0.063020021 1.4490001 6695431
-0.33672002 0.082799986 1.4490001 8407630
-0.34086001 0.077279992 1.4490001 7946578
-0.34086001 0.081419989 1.4490001 9005152
-0.34638003 0.073139988 1.4490001 8603500
-0.34638003 0.075899988 1.4490001 9266773
-0.36018002 0.053819988 1.4490001 6240289
-0.36018002 0.057959989 1.4490001 8871225
-0.40986001 -0.081420019 1.4490001 8540486
-0.22864285 -0.28961429 1.455 1310977
-0.23141427 -0.28961429 1.455 1179905
-0.30347145 0.12194285 1.455 10381367
-0.31270951 0.1076238 1.4550002 8537410
-0.31732857 0.10254285 1.455 8077636
-0.32841429 -0.059585731 1.455 6565636
-0.32841429 0.087299988 1.455 7222314
-0.32841429 0.091457129 1.455 8603187
-0.32841429 0.096999988 1.455 9530701
-0.3311857 -0.056814302 1.455 6565891
-0.3311857 -0.054042876 1.455 6434305
-0.33395714 0.084528558 1.455 7743822
-0.33257142 0.087299988 1.455 7617359
-0.33257142 0.091457129 1.455 9067349
-0.3311857 0.095614277 1.455 9658942
-0.33672857 0.087299988 1.455 8872812
-0.34596667 0.078061894 1.4550002 9198920
-0.21288858 0.082094282 1.4610001 262404
-0.22958571 -0.29359144 1.4610001 1507585
-0.23236857 -0.29637429 1.4610001 1769734
-0.23236857 -0.29359144 1.4610001 1442049
-0.29776573 0.12383714 1.4610001 8869178
-0.29776573 0.12661999 1.4610001 9595462
-0.30194002 0.1224457 1.4610001 10314815
-0.30194002 0.12661999 1.4610001 9988426
-0.30750573 -0.020871442 1.4610001 4129025
-0.30750573 0.1224457 1.4610001 10511930
-0.31168002 -0.026437156 1.4610001 5641800
-0.31028858 0.12105428 1.4610001 10446905
-0.3297686 -0.057048589 1.4610001 6434569
-0.32884097 -0.052410495 1.4610002 6169879
-0.32837716 -0.047308587 1.4610001 5777183
-0.3297686 -0.041742876 1.4610001 5053964
-0.3297686 -0.037568588 1.4610001 3670273
-0.33255145 -0.051482875 1.4610001 6302978
-0.33255145 -0.047308587 1.4610001 5974530
-0.33255145 -0.041742876 1.4610001 5120769
-0.36872858 0.054265704 1.4610001 9788736
-0.36872858 0.057048559 1.4610001 9595731
-0.37151146 0.054265704 1.4610001 9462864
-0.37290287 0.057048559 1.4610001 9331272
-0.28781146 0.13691999 1.4670001 9330238
-0.2864143 0.14111142 1.4670001 10119497
-0.29340002 0.12993428 1.4670001 9328213
-0.29479715 0.13272856 1.4670001 10253656
-0.29759145 0.12993428 1.4670001 9991768
-0.30038574 -0.0083828708 1.4670001 3211521
-0.31994572 -0.033531446 1.4670001 7818041
-0.32274002 -0.033531446 1.4670001 5058837
-0.32553431 -0.046105731 1.4670001 4662835
-0.32739717 -0.041448589 1.4670002 3869469
-0.32693145 -0.037722878 1.4670001 2818325
-0.37583145 0.053091418 1.4670001 9264459
-0.15712002 0.23848572 1.473 9591097
-0.16273145 0.23427716 1.473 8995885
-0.16974573 0.23147143 1.473 9462077
-0.1809686 0.22586 1.473 9195833
-0.1884505 0.22211905 1.473 9786700
-0.18845052 0.22679524 1.473 10512986
-0.18938574 0.23147142 1.473 10776926
-0.19219145 0.22165142 1.473 10379867
-0.20201145 0.21323428 1.473 8671012
-0.21463715 0.079962857 1.473 327937
-0.21744286 0.079962857 1.473 655617
-0.21744286 0.082768567 1.473 786695
-0.27916858 0.14449428 1.473 7549526
-0.28337714 0.14449428 1.473 8739919
-0.28758571 0.14449428 1.473 10512713
-0.28758571 0.14729999 1.473 10446921
-0.29319715 -0.0070142988 1.473 1641243
-0.29319715 0.13327141 1.473 10115915
-0.29319715 0.13747999 1.473 10120526
-0.2913267 0.14262381 1.473 10382148
-0.29039145 0.14729999 1.473 10250317
-0.29740572 -0.0084171556 1.473 3212034
-0.2988086 -0.0028057275 1.473 3605765
-0.29600286 0.13607714 1.473 10251597
-0.30442002 -0.012625727 1.473 1049092
-0.32405999 -0.040682875 1.473 6114630
-0.32686573 -0.043488588 1.473 3868205
-0.16350476 0.23820953 1.48 9923381
-0.16773334 0.23539048 1.48 9789238
-0.17337145 0.23257141 1.48 9661516
-0.17760001 0.22975236 1.48 9459766
-0.1761905 0.23257141 1.48 9926482
-0.18370795 0.22881268 1.48 10448725
-0.1832381 0.23257141 1.48 10777943
-0.18746668 0.22975236 1.48 10905947
-0.18746668 0.23257141 1.48 10906714
-0.18746668 0.23539047 1.48 10973281
-0.19310479 0.22834285 1.48 10712661
-0.19310479 0.23257141 1.48 10646615
-0.19028573 0.23539047 1.48 10843495
-0.19874288 0.21847618 1.48 8740934
-0.19733335 0.22270475 1.48 10253418
-0.19686352 0.227873 1.48 10515283
-0.20344128 0.21753649 1.48 10185531
-0.2025016 0.22223492 1.48 10515571
-0.20720001 0.21142855 1.48 8603210
-0.20720001 0.21565713 1.48 9792827
-0.21142858 0.20438094 1.48 8075079
-0.21706668 0.077523805 1.48 393473
-0.21753652 0.20344125 1.48 8336966
-0.22411428 0.067657135 1.48 1245441
-0.22411428 0.073295236 1.48 1245441
-0.22129524 0.077523805 1.48 590081
-0.22129525 0.20156188 1.48 8011567
-0.22787301 0.067187302 1.48 1638658
-0.25230476 0.17759998 1.48 9133123
-0.25512382 0.17900951 1.48 10908227
-0.25512382 0.18182856 1.48 10646840
-0.26076192 0.17055237 1.48 8804188
-0.26921904 0.022552369 1.48 2687251
-0.26921904 0.15363808 1.48 8010241
-0.26640001 0.15927617 1.48 7879996
-0.26640001 0.16350473 1.48 8410672
-0.26780951 0.16773331 1.48 10317376
-0.27344763 0.018323798 1.48 2228737
-0.2729778 0.02208253 1.48 2753032
-0.2739175 0.1526984 1.48 8140579
-0.27767619 0.016914273 1.48 3409153
-0.27767619 0.021142844 1.48 3737602
-0.27767619 0.14799999 1.48 7483465
-0.27767619 0.15222855 1.48 8672833
-0.27767619 0.15645713 1.48 10511420
-0.28331429 0.012685702 1.48 3606274
-0.28049523 0.016914273 1.48 3672321
-0.28190476 0.14799999 1.48 9067095
-0.28049523 0.15081903 1.48 9533529
-0.28895238 0.002819035 1.48 2752769
-0.28613332 0.0098666549 1.48 3539971
-0.29365081 -0.0032889016 1.48 3278595
-0.29365081 0.003288876 1.48 3933185
-0.2974095 -0.0028190606 1.48 3343112
-0.2974095 0.0014095107 1.48 3933954
-0.30304763 -0.012685727 1.48 1638657
-0.3256 -0.038057156 1.48 5916497
-0.15992191 0.24342096 1.4860001 10644551
-0.1627524 0.24342096 1.4860001 10777668
-0.16558287 0.24342096 1.4860001 10907976
-0.17973527 0.23351426 1.4860001 10319704
-0.17832002 0.23775999 1.4860001 10710883
-0.17832002 0.24200572 1.4860001 10710629
-0.18256573 0.23634475 1.4860001 10710877
-0.20804003 0.2193619 1.4860001 10908233
-0.20804003 0.22219236 1.4860001 10646104
-0.21228574 0.20804 1.4860001 8271177
-0.21181399 0.21181396 1.4860001 9065032
-0.21087049 0.21794666 1.4860001 10384448
-0.21936192 0.072177134 1.4860001 852225
-0.21936192 0.075007617 1.4860001 655618
-0.21794669 0.20804 1.4860001 9003339
-0.21936193 0.21087046 1.4860001 10186821
-0.22219238 0.067931421 1.4860001 917768
-0.22219238 0.072177134 1.4860001 1114369
-0.22219238 0.075007617 1.4860001 852225
-0.22219239 0.20662476 1.4860001 10318415
-0.22219239 0.21087046 1.4860001 10710603
-0.22785333 0.063685708 1.4860001 983298
-0.22643812 0.19813333 1.4860001 8142116
-0.22643812 0.20237905 1.4860001 9984054
-0.22643812 0.20520951 1.4860001 10251594
-0.23162732 0.062742218 1.4860001 1638658
-0.23209907 0.19388761 1.4860001 8405288
-0.23209907 0.19813333 1.4860001 9853783
-0.23209907 0.20237905 1.4860001 10383956
-0.23209907 0.20520951 1.4860001 10383169
-0.23823176 0.062742218 1.4860001 2556161
-0.23917526 0.18822666 1.4860001 8665904
-0.23776002 0.19247237 1.4860001 9656662
-0.23634478 0.19813333 1.4860001 10383726
-0.23776002 0.20237905 1.4860001 10317400
-0.24342096 0.058024753 1.4860001 2359809
-0.24342096 0.060855228 1.4860001 2687745
-0.24342097 0.1825657 1.4860001 8270358
-0.24342097 0.18539619 1.4860001 8798005
-0.2476667 0.1825657 1.4860001 8864332
-0.2476667 0.18539619 1.4860001 9787201
-0.25238416 0.048589829 1.4860001 2359553
-0.25191239 0.1825657 1.4860001 9530670
-0.25332764 0.18539619 1.4860001 10320178
-0.25757334 0.043872371 1.4860001 2556161
-0.25898859 0.17407428 1.4860001 9064019
-0.25804508 0.17784825 1.4860001 9923149
-0.25898859 0.1825657 1.4860001 10383692
-0.25615808 0.18539619 1.4860001 10384198
-0.26464954 0.036796179 1.4860001 3148033
-0.26181903 0.042457134 1.4860001 2949889
-0.26370606 0.17313078 1.4860001 9988694
-0.26276255 0.17784825 1.4860001 10252616
-0.26748002 0.028304752 1.4860001 3342599
-0.26748002 0.17124379 1.4860001 10252892
-0.27172571 0.15850665 1.4860001 8275506
-0.27172571 0.16275238 1.4860001 9722164
-0.27172571 0.16558284 1.4860001 9922345
-0.27597144 0.015567607 1.4860001 2359553
-0.27691495 0.15897839 1.4860001 9854504
-0.27597144 0.16275238 1.4860001 10643504
-0.28163239 0.012737131 1.4860001 2950145
-0.28351939 0.15331745 1.4860001 10514261
-0.28304762 0.15709142 1.4860001 10382426
-0.28729334 0.14859998 1.4860001 9988166
-0.28729334 0.1528457 1.4860001 10578515
-0.29153907 -0.0014152508 1.4860001 1837071
-0.2929543 0.0014152253 1.4860001 3080449
-0.16909337 0.24156192 1.4920001 10580547
-0.16909337 0.24582478 1.4920001 10842707
-0.17335622 0.23729904 1.4920001 10579539
-0.17335622 0.2415619 1.4920001 10645857
-0.17193526 0.24582477 1.4920001 10777177
-0.21456385 0.21456382 1.4920001 10063679
-0.21456385 0.21740571 1.4920001 10516789
-0.21740574 0.21314286 1.4920001 10253641
-0.21740574 0.21740571 1.4920001 10976590
-0.22024764 0.21456382 1.4920001 10645078
-0.22735241 0.20888001 1.4920001 10579786
-0.22735241 0.2117219 1.4920001 10513996
-0.23445717 0.056838088 1.4920001 1442049
-0.23445717 0.061100945 1.4920001 2228481
-0.23729905 0.056838088 1.4920001 1638657
-0.23729905 0.061100945 1.4920001 2359809
-0.24108827 0.056364436 1.4920001 1900801
-0.24298289 0.18898667 1.4920001 9327455
-0.24298289 0.19324951 1.4920001 10383181
-0.24156193 0.19751237 1.4920001 10383190
-0.24014097 0.20035428 1.4920001 10383454
-0.24866667 0.049733326 1.4920001 2556161
-0.24724573 0.052575227 1.4920001 2425089
-0.24582478 0.055417135 1.4920001 2162945
-0.24724574 0.18898667 1.4920001 10054465
-0.2458248 0.19324951 1.4920001 10514250
-0.25340319 0.043102216 1.4920001 2425089
-0.25150859 0.046891421 1.4920001 2556161
-0.25245589 0.18803938 1.4920001 10251068
-0.2571924 0.041207608 1.4920001 2491137
-0.26287621 0.036944754 1.4920001 3146497
-0.26003429 0.041207608 1.4920001 2753281
-0.26571813 0.029839991 1.4920001 2883841
-0.26571813 0.032681894 1.4920001 3343873
-0.24269524 0.052821893 1.4990001 1966337
-0.24697812 0.049966659 1.4990001 2687233
-0.24983336 0.19272856 1.4990001 10382146
-0.24983336 0.19558381 1.4990001 10316365
-0.25268856 0.041400943 1.4990001 1769729
-0.25268856 0.19272856 1.4990001 10251078
-0.25697142 0.038545705 1.4990001 2097409
-0.26410952 0.032835227 1.4990001 3146241
-0.26125431 0.037118088 1.4990001 2753537
-0.24526286 0.050199989 1.506 2294017
-0.25100002 0.047331419 1.506 2425090
-0.24336001 0.050399989 1.5120001 1966364
-0.24768001 0.047519993 1.5120001 3080449
-0.252 0.04463999 1.5120001 2294017
-0.25027335 0.044846654 1.5190001 1967380
-0.26474002 0.033273321 1.5190001 2359553
