# .PCD v0.7 - Point Cloud Data file format
VERSION 0.7
FIELDS x y z rgba
SIZE 4 4 4 4
TYPE F F F U
COUNT 1 1 1 1
WIDTH 1061
HEIGHT 1
VIEWPOINT 0 0 0 1 0 0 0
POINTS 1061
DATA ascii
0.19245708 -0.71209145 -1.263 1773849
0.1972685 -0.71209145 -1.263 1903135
0.20207992 -0.71209139 -1.263 1182479
0.20689136 -0.71209145 -1.263 1640972
0.21170278 -0.71209145 -1.263 2034447
0.21651421 -0.71209139 -1.263 2299935
0.22132564 -0.71209145 -1.263 2889525
0.23215136 -0.71209145 -1.263 2098969
0.23335421 -0.70727992 -1.263 2492443
0.23816563 -0.7060771 -1.263 2230569
0.24297708 -0.70246851 -1.263 1706017
0.18355802 -0.7161181 -1.268 2492983
0.1883885 -0.7161181 -1.268 2101276
0.18718088 -0.71370286 -1.268 2298387
0.21616374 -0.70887238 -1.268 2231561
0.22220184 -0.71128762 -1.268 2692646
0.22220184 -0.70887238 -1.268 2627079
0.2270323 -0.7161181 -1.268 2887445
0.2270323 -0.71249527 -1.268 2823457
0.2270323 -0.70887238 -1.268 2692126
0.23065516 -0.7161181 -1.268 2362652
0.23065516 -0.71249521 -1.268 2559264
0.23669325 -0.7161181 -1.268 1772054
0.2370958 -0.71289778 -1.268 2099738
0.24152373 -0.7161181 -1.268 984604
0.24152373 -0.71249527 -1.268 1575455
0.24273135 -0.70887238 -1.268 1771299
0.24756183 -0.7161181 -1.268 1377809
0.24514659 -0.71249521 -1.268 1378326
0.24675676 -0.7080673 -1.268 1574161
0.24834278 -0.7159543 -1.2720001 1444114
0.24834278 -0.71353149 -1.2720001 1443088
0.24834278 -0.70626289 -1.2720001 1706253
0.24834278 -0.70262861 -1.2720001 1836295
0.24834278 -0.69899428 -1.2720001 2229508
0.25076565 -0.69657147 -1.2720001 2097921
0.25197706 -0.68809152 -1.2720001 2032649
0.16661802 -0.721201 -1.2770001 1380877
0.25175136 -0.70174193 -1.2770001 1901569
0.25418371 -0.67863429 -1.2770001 1639682
0.25661612 -0.68228287 -1.2770001 1442562
0.25661612 -0.67498577 -1.2770001 1573639
0.25273708 -0.71425718 -1.2820001 1508355
0.25273708 -0.70693141 -1.2820001 1835777
0.25517899 -0.69716382 -1.2820001 1770242
0.25517899 -0.69472188 -1.2820001 1835783
0.25762087 -0.68861717 -1.2820001 2163462
0.25762087 -0.68129146 -1.2820001 1508354
0.25762087 -0.67518669 -1.2820001 1638924
0.25762087 -0.67152381 -1.2820001 1704719
0.25762087 -0.66786098 -1.2820001 1835785
0.25372279 -0.71949434 -1.2870001 1442820
0.25372279 -0.71214002 -1.2870001 1705473
0.26107708 -0.68762571 -1.2870001 918281
0.26107708 -0.68149716 -1.2870001 1508360
0.26107708 -0.67782003 -1.2870001 1377290
0.26107708 -0.65575719 -1.2870001 1770015
0.26107708 -0.65208 -1.2870001 1902610
0.26107708 -0.64227426 -1.2870001 1640967
0.26230279 -0.63737142 -1.2870001 1902859
0.25451133 -0.72418952 -1.291 1377289
0.26188847 -0.68730378 -1.291 1246212
0.26434752 -0.63566381 -1.291 1835796
0.26270816 -0.63156545 -1.2910001 2098711
0.25549707 -0.7294628 -1.296 1508111
0.26043418 -0.69984001 -1.296 1966863
0.26290277 -0.69490284 -1.296 1442574
0.26537135 -0.63565713 -1.296 2098970
0.25648281 -0.72236484 -1.3010001 1639682
0.262265 -0.61167657 -1.3010001 2689812
0.26391709 -0.60713339 -1.3010001 2688786
0.26391709 -0.6034162 -1.3010001 2689281
0.26639518 -0.64306575 -1.3010001 1968142
0.26639518 -0.60589439 -1.3010001 2951186
0.26639518 -0.6034162 -1.3010001 2754817
0.26639518 -0.59598196 -1.3010001 3017503
0.26763421 -0.59226477 -1.3010001 3148836
0.26763421 -0.58730865 -1.3010001 3214081
0.26244372 -0.70772767 -1.3060001 1573640
0.26493135 -0.62688005 -1.3060001 2295564
0.26493135 -0.62190479 -1.3060001 2165262
0.26493135 -0.61692953 -1.3060001 2231315
0.26493135 -0.60200381 -1.3060001 2691076
0.26493135 -0.58583432 -1.3060001 2820872
0.26741898 -0.61195433 -1.3060001 2951711
0.2682482 -0.60158926 -1.3060001 2624773
0.26990661 -0.59827238 -1.3060001 3017751
0.26741898 -0.58210289 -1.3060001 2952980
0.26741898 -0.57837147 -1.3060001 2953496
0.26741898 -0.56717718 -1.3060001 3346442
0.26344851 -0.56185722 -1.3110001 2887939
0.26344851 -0.55186868 -1.3110001 3280390
0.26344851 -0.53064293 -1.3110001 3542548
0.26344851 -0.51815718 -1.3110001 3672577
0.26594564 -0.70794004 -1.3110001 1639460
0.26844278 -0.6954543 -1.3110001 1575178
0.26844278 -0.66299146 -1.3110001 1968913
0.26844278 -0.62054008 -1.3110001 2494740
0.26844278 -0.61804289 -1.3110001 2690067
0.26844278 -0.58807719 -1.3110001 3082756
0.26844278 -0.57808858 -1.3110001 3084566
0.26844278 -0.57309431 -1.3110001 3280906
0.26594564 -0.5656029 -1.3110001 3083013
0.26594564 -0.56310576 -1.3110001 3083265
0.26594564 -0.55811143 -1.3110001 3148293
0.26594564 -0.54063147 -1.3110001 3543068
0.26594564 -0.53813434 -1.3110001 3674892
0.26594564 -0.52065432 -1.3110001 3868941
0.27093995 -0.66299146 -1.3110001 2100239
0.27093995 -0.62054008 -1.3110001 2952986
0.26194662 -0.74072003 -1.3160001 1573387
0.26319996 -0.73570675 -1.3160001 1245956
0.26194662 -0.72818673 -1.3160001 1704706
0.26194662 -0.72066671 -1.3160001 1704961
0.26194662 -0.71816003 -1.3160001 1770241
0.26445326 -0.53517342 -1.3160001 3608577
0.26194662 -0.52013332 -1.3160001 3543555
0.26319996 -0.5176267 -1.3160001 3673859
0.26194662 -0.51010674 -1.3160001 3609368
0.26278219 -0.50592893 -1.3160002 3543817
0.26278219 -0.50175118 -1.3160002 3805969
0.26194662 -0.49757335 -1.3160001 3935763
0.26821327 -0.71189344 -1.3160001 1573926
0.26946661 -0.65674669 -1.3160001 1836551
0.26946661 -0.62541342 -1.3160001 2428437
0.26946661 -0.57778668 -1.3160001 3215376
0.26946661 -0.56650674 -1.3160001 3150339
0.26695994 -0.5627467 -1.3160001 3083011
0.2677955 -0.55606222 -1.3160002 3280385
0.26695994 -0.5514667 -1.3160001 3346186
0.26695994 -0.53642672 -1.3160001 3805702
0.26695994 -0.53141332 -1.3160001 3739685
0.2677955 -0.52681792 -1.3160002 4066338
0.27197325 -0.65298671 -1.3160001 2295560
0.25790945 -0.47933429 -1.3210001 3935758
0.26294184 -0.49694765 -1.3210001 3935246
0.26168373 -0.49317336 -1.3210001 3935501
0.26042566 -0.48814097 -1.3210001 4002825
0.26042566 -0.48310861 -1.3210001 3675413
0.26042566 -0.47933429 -1.3210001 3870477
0.26210311 -0.47262448 -1.3210001 3805442
0.26671609 -0.74227619 -1.3210001 787719
0.26713547 -0.73682451 -1.3210001 1246724
0.26671609 -0.73221147 -1.3210001 1901060
0.26671609 -0.72717905 -1.3210001 1180421
0.26671609 -0.72214675 -1.3210001 1377282
0.2679742 -0.71837246 -1.3210001 1442562
0.2679742 -0.69321048 -1.3210001 1508363
0.2679742 -0.68566197 -1.3210001 1901579
0.26545802 -0.49317336 -1.3210001 4000770
0.27049041 -0.73850197 -1.3210001 1116420
0.27049041 -0.72717905 -1.3210001 1442828
0.27049041 -0.72214675 -1.3210001 1704964
0.27132916 -0.71669501 -1.3210001 1901330
0.27174851 -0.71208191 -1.3210001 1967655
0.27049041 -0.70327526 -1.3210001 1443335
0.27049041 -0.6982429 -1.3210001 1509389
0.27049041 -0.63533813 -1.3210001 1903121
0.27049041 -0.63030577 -1.3210001 2362381
0.27049041 -0.56362671 -1.3210001 3281154
0.27049041 -0.55985242 -1.3210001 3478530
0.27049041 -0.53720665 -1.3210001 3609354
0.27049041 -0.53343236 -1.3210001 3477549
0.25762278 -0.45589146 -1.3260001 3676959
0.25720182 -0.45252389 -1.3260001 3741990
0.25635991 -0.44831431 -1.3260001 3545345
0.26393709 -0.74382287 -1.3260001 1377287
0.26393709 -0.73750865 -1.3260001 1508354
0.26393709 -0.73119432 -1.3260001 1639170
0.26393709 -0.72866863 -1.3260001 1639425
0.26393709 -0.49251431 -1.3260001 4328968
0.26393709 -0.48620003 -1.3260001 3479310
0.26393709 -0.48241144 -1.3260001 3674126
0.26393709 -0.47862288 -1.3260001 3936001
0.26646277 -0.72109145 -1.3260001 1573633
0.26898849 -0.71351433 -1.3260001 1966873
0.26898849 -0.69204569 -1.3260001 1704710
0.26898849 -0.68573147 -1.3260001 1770769
0.2681466 -0.68236387 -1.3260001 1705507
0.26898849 -0.67815435 -1.3260001 1639975
0.27277708 -0.74634862 -1.3260001 1181965
0.27319804 -0.74298096 -1.3260001 1050374
0.27277708 -0.73750865 -1.3260001 1574151
0.27319804 -0.73287815 -1.3260001 1901325
0.27403995 -0.72740579 -1.3260001 1901831
0.27403995 -0.72235429 -1.3260001 2294530
0.27319804 -0.7118305 -1.3260001 1771034
0.27319804 -0.70762104 -1.3260001 1574411
0.27403995 -0.70214862 -1.3260001 1575176
0.27151421 -0.69709718 -1.3260001 1574150
0.27235612 -0.69162476 -1.3260001 1901827
0.27151421 -0.68699431 -1.3260001 1967370
0.27235612 -0.67647052 -1.3260001 1509417
0.27277708 -0.67310292 -1.3260001 2165018
0.27277708 -0.66805148 -1.3260001 1903113
0.27403995 -0.66173714 -1.3260001 2098948
0.27403995 -0.65542287 -1.3260001 2230028
0.27403995 -0.65289718 -1.3260001 2230287
0.27656564 -0.74634862 -1.3260001 1639706
0.27656564 -0.74256003 -1.3260001 1574407
0.27656564 -0.7387715 -1.3260001 1705221
0.27656564 -0.73119432 -1.3260001 2229265
0.27656564 -0.72740579 -1.3260001 2360326
0.27782848 -0.72235435 -1.3260001 2687755
0.27782848 -0.71730292 -1.3260001 2557708
0.27909136 -0.71351433 -1.3260001 2558994
0.27656564 -0.69078285 -1.3260001 2427660
0.28161708 -0.72109145 -1.3260001 2950193
0.28161708 -0.71730292 -1.3260001 2951439
0.25352374 -0.4436667 -1.3310001 3677195
0.2531012 -0.43901879 -1.3310001 4003858
0.25352374 -0.43352574 -1.3310001 4067864
0.25986183 -0.4512724 -1.3310001 3807496
0.25859421 -0.44746953 -1.3310001 3544321
0.2573266 -0.4436667 -1.3310001 4069121
0.2573266 -0.43986383 -1.3310001 4133889
0.2649323 -0.49056861 -1.3310001 4001288
0.27253801 -0.68578196 -1.3310001 1967910
0.27253801 -0.68324673 -1.3310001 1640255
0.27253801 -0.66803533 -1.3310001 1771009
0.27253801 -0.64268285 -1.3310001 2230302
0.27760848 -0.73775429 -1.3310001 2032395
0.27760848 -0.71620482 -1.3310001 2230034
0.27760848 -0.71240193 -1.3310001 2100241
0.27760848 -0.70859909 -1.3310001 2034947
0.27507326 -0.70099336 -1.3310001 1640199
0.27634087 -0.69719052 -1.3310001 2033670
0.27634087 -0.6908524 -1.3310001 2361351
0.27634087 -0.68704963 -1.3310001 2361866
0.27634087 -0.68197906 -1.3310001 1640986
0.27760848 -0.67690861 -1.3310001 2427415
0.27760848 -0.67183816 -1.3310001 2625035
0.27634087 -0.66676772 -1.3310001 2230019
0.27760848 -0.66169715 -1.3310001 2689540
0.28014374 -0.74789524 -1.3310001 1967406
0.28141135 -0.74282479 -1.3310001 2163736
0.28141135 -0.73775429 -1.3310001 2491921
0.28141135 -0.7326839 -1.3310001 2819594
0.28183389 -0.72803593 -1.3310001 2950161
0.28267896 -0.71620482 -1.3310001 2952723
0.28098881 -0.71197939 -1.3310001 2560020
0.28141135 -0.70859909 -1.3310001 2560769
0.28014374 -0.69592291 -1.3310001 2691094
0.28014374 -0.69338769 -1.3310001 2822435
0.28014374 -0.68578196 -1.3310001 2886152
0.28521419 -0.73141623 -1.3310001 3082255
0.28521419 -0.72761333 -1.3310001 3147284
0.28521419 -0.72254288 -1.3310001 3147287
0.28521419 -0.71874005 -1.3310001 3213829
0.25702086 -0.43897146 -1.3360001 3936777
0.27356184 -0.64000767 -1.3360001 2165509
0.27865136 -0.70744383 -1.3360001 2034692
0.27865136 -0.70362669 -1.3360001 2165766
0.27865136 -0.6705448 -1.3360001 2558725
0.27865136 -0.66036576 -1.3360001 2755850
0.27737898 -0.65654862 -1.3360001 2558734
0.2761066 -0.6514591 -1.3360001 2492425
0.2761066 -0.64128006 -1.3360001 1772811
0.27737898 -0.63746291 -1.3360001 2691858
0.27737898 -0.63491815 -1.3360001 2887966
0.28374088 -0.75197721 -1.3360001 2426454
0.28374088 -0.74943244 -1.3360001 2361404
0.28374088 -0.7163505 -1.3360001 2821666
0.28204438 -0.70786798 -1.3360002 2560771
0.28204438 -0.70277846 -1.3360002 2692360
0.28374088 -0.69726479 -1.3360001 2887215
0.28204438 -0.69175118 -1.3360002 2951945
0.2824685 -0.68708575 -1.3360001 2951691
0.28119612 -0.68326861 -1.3360001 2951694
0.28119612 -0.67563426 -1.3360001 3150862
0.28119612 -0.67308956 -1.3360001 3280651
0.28119612 -0.66672766 -1.3360001 3082246
0.28119612 -0.66291052 -1.3360001 3213318
0.28628564 -0.75197721 -1.3360001 2821173
0.28713393 -0.74858421 -1.3360002 2821149
0.2871339 -0.7426464 -1.3360002 2952997
0.28755805 -0.73798102 -1.3360001 3018516
0.28883043 -0.7328915 -1.3360001 3082259
0.25306275 -0.39748761 -1.342 4267282
0.25306275 -0.39365333 -1.342 4201751
0.25306275 -0.38854095 -1.342 4528909
0.27990279 -0.65694094 -1.342 2821127
0.27905074 -0.65140259 -1.342 2756362
0.27905074 -0.64714229 -1.342 2231831
0.27990279 -0.64288187 -1.342 2560263
0.28245896 -0.68250287 -1.342 2952206
0.28245896 -0.67355621 -1.342 3149065
0.28245896 -0.66205335 -1.342 3279370
0.28245896 -0.65821904 -1.342 3345433
0.28245896 -0.64671624 -1.342 3085835
0.28245896 -0.64160377 -1.342 3216135
0.28245896 -0.63776952 -1.342 3477779
0.28629324 -0.70806473 -1.342 2888715
0.28671929 -0.70337844 -1.342 2952721
0.28501514 -0.69656193 -1.342 3149343
0.28501514 -0.64671624 -1.342 3216897
0.28501514 -0.64160377 -1.342 3085314
0.29140562 -0.75535429 -1.342 2953748
0.29012752 -0.75024194 -1.342 2887702
0.29012752 -0.74768573 -1.342 2953506
0.29012752 -0.73234856 -1.342 3213327
0.29012752 -0.72979236 -1.342 3147018
0.25528851 -0.37844291 -1.3470001 5517315
0.25528851 -0.36689717 -1.3470001 6504986
0.25528851 -0.36176574 -1.3470001 6634282
0.28351134 -0.65682292 -1.3470001 3346183
0.28351134 -0.65297431 -1.3470001 3347463
0.28864276 -0.71198577 -1.3470001 3019798
0.25366089 -0.36182097 -1.3520001 6962728
0.25219992 -0.35178667 -1.358 6109480
0.25349325 -0.34661335 -1.358 6371629
0.2505323 -0.34659144 -1.363 6041655
0.25183037 -0.34269714 -1.363 6306117
0.25183034 -0.33750474 -1.363 6504752
0.2557247 -0.35178381 -1.363 6438423
0.2557247 -0.34269714 -1.363 6569014
0.25572467 -0.33880287 -1.363 6701357
0.2462399 -0.34004572 -1.368 5253187
0.2462399 -0.33744001 -1.368 4729395
0.24754275 -0.33353144 -1.368 4993578
0.25145131 -0.32310858 -1.368 6765084
0.25145131 -0.31789714 -1.368 6765343
0.20021132 -0.14656 -1.3740001 4393478
0.2010837 -0.14176188 -1.3740001 4001028
0.20675419 -0.17142284 -1.3740001 3803649
0.20806275 -0.1688057 -1.3740001 3804673
0.24470277 -0.3206 -1.3740001 4926510
0.24470277 -0.31667429 -1.3740001 4992070
0.24862848 -0.3153657 -1.3740001 5583147
0.24906467 -0.31187624 -1.3740001 5450543
0.25255418 -0.32845145 -1.3740001 6502685
0.2656399 -0.25778857 -1.3740001 6962195
0.19305989 -0.12214 -1.3790001 4393218
0.19218433 -0.11863778 -1.3790001 4262401
0.19305989 -0.086679995 -1.3790001 4264961
0.19831322 -0.14052665 -1.3790001 4133132
0.19743767 -0.13702445 -1.3790001 4068111
0.19568655 -0.12739332 -1.3790001 4395280
0.19568655 -0.12476666 -1.3790001 4329477
0.20356655 -0.15365998 -1.3790001 4131333
0.20750658 -0.17467333 -1.3790001 3803906
0.20750657 -0.16679333 -1.3790001 3935233
0.20750657 -0.16285332 -1.3790001 4262151
0.20619322 -0.15891333 -1.3790001 4851465
0.23771323 -0.30075336 -1.3790001 2229254
0.23771323 -0.29681334 -1.3790001 1835524
0.24165323 -0.30732 -1.3790001 4202763
0.24165323 -0.30206668 -1.3790001 3939591
0.24296656 -0.29681334 -1.3790001 3873036
0.24209101 -0.29112226 -1.3790001 3410177
0.24033991 -0.28762001 -1.3790001 2754561
0.24690656 -0.31126001 -1.3790001 4533548
0.24690658 -0.30732 -1.3790001 4725799
0.24690658 -0.30206668 -1.3790001 4988189
0.24690656 -0.29681334 -1.3790001 4464412
0.24559323 -0.29287335 -1.3790001 4136196
0.25084656 -0.30732 -1.3790001 5713454
0.25084656 -0.30206668 -1.3790001 5780012
0.18862371 -0.11211904 -1.3850001 4199188
0.18862371 -0.1081619 -1.3850001 4263170
0.18730466 -0.10288572 -1.3850001 4393986
0.18862371 -0.097609527 -1.3850001 4263681
0.18774435 -0.092773028 -1.3850001 4132100
0.18774435 -0.087496825 -1.3850001 4197384
0.18862371 -0.076504759 -1.3850001 4327942
0.18862371 -0.072547615 -1.3850001 4262410
0.18862371 -0.06990952 -1.3850001 4131590
0.1912618 -0.11739524 -1.3850001 4263179
0.19258085 -0.11343809 -1.3850001 4460296
0.19302055 -0.10860159 -1.3850001 4458497
0.19258085 -0.097609527 -1.3850001 4067329
0.19214118 -0.092773028 -1.3850001 4198401
0.1912618 -0.087057136 -1.3850001 4461057
0.1912618 -0.077823803 -1.3850001 4789256
0.19653799 -0.1358619 -1.3850001 4396302
0.19741735 -0.13234444 -1.3850001 4329238
0.19917607 -0.12662856 -1.3850001 4198155
0.19785702 -0.12135238 -1.3850001 4196610
0.19653799 -0.11739524 -1.3850001 4197121
0.19653799 -0.11343809 -1.3850001 4852225
0.19653799 -0.10948095 -1.3850001 4851457
0.20445228 -0.15169047 -1.3850001 4197126
0.20972848 -0.18202856 -1.3850001 4133892
0.20972848 -0.17807144 -1.3850001 4066308
0.20709038 -0.15696667 -1.3850001 4458754
0.20709038 -0.15300952 -1.3850001 4066053
0.20709038 -0.14905237 -1.3850001 4132100
0.21236658 -0.18334761 -1.3850001 4397084
0.24138562 -0.29810476 -1.3850001 2885124
0.24138562 -0.29414764 -1.3850001 2687489
0.27172372 -0.25721431 -1.3850001 5446937
0.27216339 -0.25369686 -1.3850001 3672842
0.18930466 -0.067514285 -1.3900001 4197122
0.18930466 -0.063542858 -1.3900001 4197377
0.18753958 -0.058688883 -1.3900001 3869698
0.19195227 -0.10722858 -1.3900001 4327937
0.19327609 -0.10325714 -1.3900001 4326657
0.207838 -0.19327618 -1.3900001 3279617
0.207838 -0.18930477 -1.3900001 3476993
0.20607291 -0.14782539 -1.3900001 4132098
0.21048562 -0.18665715 -1.3900001 3937283
0.27667609 -0.25549525 -1.3900001 7154700
0.27799988 -0.25152382 -1.3900001 4327953
0.19012178 -0.057169516 -1.396 4328449
0.19012178 -0.053180944 -1.396 4590081
0.19012178 -0.049192373 -1.396 4393985
0.21139419 -0.19543999 -1.396 3870209
0.21139419 -0.19145142 -1.396 3740673
0.28052941 -0.25659811 -1.396 7028745
0.28318843 -0.25260952 -1.396 6565658
0.28584751 -0.24862094 -1.396 5316354
0.19360942 -0.073438086 -1.4020001 4723461
0.19360942 -0.061420947 -1.4020001 4461569
0.19360942 -0.057415232 -1.4020001 4788481
0.19093893 -0.038721897 -1.4020001 4459522
0.21497324 -0.19627999 -1.4020001 4526593
0.21497324 -0.19227429 -1.4020001 4133377
0.21497324 -0.18826856 -1.4020001 4200206
0.28440559 -0.25770095 -1.4020001 6963480
0.28974655 -0.26037145 -1.4020001 7094566
0.28841132 -0.25636572 -1.4020001 6962736
0.28841132 -0.25236002 -1.4020001 6765598
0.28974655 -0.24835429 -1.4020001 6565903
0.28974655 -0.24434856 -1.4020001 4719367
0.29241705 -0.25503048 -1.4020001 7159125
0.29241705 -0.25236002 -1.4020001 6963003
0.29241705 -0.24835429 -1.4020001 6832157
0.19429989 -0.07102 -1.4070001 4461315
0.19429989 -0.066999994 -1.4070001 4461313
0.19429989 -0.053599995 -1.4070001 5049857
0.19340657 -0.047793329 -1.4070001 4592641
0.19295989 -0.042879995 -1.4070001 4527875
0.19295989 -0.037519991 -1.4070001 4591115
0.19295989 -0.032159992 -1.4070001 4262917
0.19161989 -0.026799994 -1.4070001 3934471
0.19161989 -0.022779994 -1.4070001 4526086
0.19787323 -0.061193332 -1.4070001 4595457
0.19831988 -0.057619996 -1.4070001 4660481
0.19831988 -0.053599995 -1.4070001 4790017
0.19831988 -0.048239991 -1.4070001 4855304
0.19787322 -0.043326665 -1.4070001 4986636
0.20233989 -0.046899993 -1.4070001 4922407
0.2237799 -0.20233999 -1.4070001 5643284
0.22779991 -0.20233999 -1.4070001 5709071
0.2318199 -0.20233999 -1.4070001 6100240
0.2318199 -0.19965999 -1.4070001 5643785
0.29345989 -0.24522001 -1.4070001 5777678
0.29211989 -0.24253999 -1.4070001 3870993
0.29703325 -0.25147334 -1.4070001 7094064
0.2974799 -0.24655999 -1.4070001 6963992
0.2961399 -0.24253999 -1.4070001 6632975
0.2961399 -0.23986 -1.4070001 5776654
0.3014999 -0.24522001 -1.4070001 6964758
0.30417988 -0.24253999 -1.4070001 7424544
0.19243704 -0.020185707 -1.4130001 4002051
0.19781989 -0.067285709 -1.4130001 4397057
0.19692275 -0.037231423 -1.4130001 4723756
0.19781989 -0.032297138 -1.4130001 4658706
0.19647416 -0.026914278 -1.4130001 4264964
0.19647416 -0.02153142 -1.4130001 4527622
0.19647416 -0.017494278 -1.4130001 3609348
0.19647416 -0.013457135 -1.4130001 4329217
0.19647418 -0.008074278 -1.4130001 4131585
0.20051132 -0.06594 -1.4130001 4396545
0.20051132 -0.063248567 -1.4130001 4529153
0.20320275 -0.055174284 -1.4130001 4790531
0.20320275 -0.052482851 -1.4130001 4790276
0.20320275 -0.049791425 -1.4130001 4790293
0.20051132 -0.041717138 -1.4130001 4985611
0.20051132 -0.03095142 -1.4130001 5117961
0.20051132 -0.026914278 -1.4130001 5250313
0.20051132 -0.02153142 -1.4130001 5512461
0.20185703 -0.017494278 -1.4130001 5775113
0.20185703 -0.013457135 -1.4130001 5582081
0.20140848 -0.0085228505 -1.4130001 5383681
0.21935134 -0.19647427 -1.4130001 4527105
0.21935134 -0.19243714 -1.4130001 4134913
0.21935134 -0.18974571 -1.4130001 3938842
0.22338848 -0.20051143 -1.4130001 5381129
0.22742562 -0.20051143 -1.4130001 5447177
0.23011705 -0.20051143 -1.4130001 5512968
0.23011705 -0.19781999 -1.4130001 5249795
0.24895707 -0.19781999 -1.4130001 5906189
0.29740274 -0.23684572 -1.4130001 4393740
0.30143988 -0.24222858 -1.4130001 6834445
0.30143991 -0.23684572 -1.4130001 6437137
0.30547705 -0.24088286 -1.4130001 7293991
0.30547705 -0.23684572 -1.4130001 7163204
0.30816847 -0.23011714 -1.4130001 7094055
0.19235322 -0.0031533251 -1.419 4263425
0.19865988 -0.07162571 -1.419 4593409
0.19685797 -0.0022523724 -1.419 4195585
0.20136273 -0.037839994 -1.419 4790560
0.20136273 -0.033785708 -1.419 4986904
0.20406559 -0.0067571341 -1.419 5516546
0.20136273 -0.0040542767 -1.419 5255427
0.22298561 -0.19865999 -1.419 4921601
0.22298561 -0.19190285 -1.419 3873289
0.22703989 -0.19865999 -1.419 5118721
0.23109418 -0.19595712 -1.419 4987651
0.25271702 -0.19730856 -1.419 5839891
0.25812271 -0.19325428 -1.419 5511706
0.30767512 -0.23289618 -1.419 6833456
0.30812562 -0.22703998 -1.419 6175759
0.31217989 -0.22568856 -1.419 7094048
0.31308088 -0.22118381 -1.419 7027246
0.31758559 -0.2135257 -1.419 7028997
0.3216399 -0.21217427 -1.419 6963221
0.32028845 -0.20947142 -1.419 7095322
0.19949989 -0.0040714196 -1.4250001 4524546
0.19814275 0.0027142942 -1.4250001 3867394
0.19678561 0.0081428662 -1.4250001 4064522
0.20357132 -0.0027142768 -1.4250001 5451011
0.22392848 -0.19678572 -1.4250001 4527361
0.22799991 -0.19678572 -1.4250001 4789761
0.22799991 -0.19407143 -1.4250001 4395521
0.26328561 -0.19271429 -1.4250001 5575704
0.26464275 -0.18728571 -1.4250001 5311759
0.26735702 -0.18728571 -1.4250001 5838861
0.31621417 -0.21578571 -1.4250001 7425036
0.32435703 -0.21035714 -1.4250001 7095078
0.32299989 -0.20764285 -1.4250001 7160592
0.2030656 0.0027257234 -1.4310001 5317889
0.20170274 0.0081771519 -1.4310001 5051393
0.20033988 0.013628581 -1.4310001 4852737
0.20033988 0.017717153 -1.4310001 4524545
0.20033988 0.020442868 -1.4310001 4196609
0.20715418 -0.0013628482 -1.4310001 5779202
0.20579132 0.0027257237 -1.4310001 5647361
0.27257133 -0.18943714 -1.4310001 6362897
0.3216342 -0.20579143 -1.4310001 5976833
0.32753992 -0.2067 -1.4310001 7030032
0.20391703 0.012317153 -1.437 5313793
0.20391703 0.016422866 -1.437 4916737
0.20117988 0.023265725 -1.437 4261889
0.20117988 0.026002867 -1.437 4261635
0.20939131 0.0027371519 -1.437 5974534
0.20802273 0.0082114385 -1.437 5974791
0.20665416 0.012317153 -1.437 5777922
0.20665416 0.015054295 -1.437 5712897
0.21212845 0.0041057235 -1.437 6105361
0.2723456 -0.18749428 -1.437 6035208
0.2723456 -0.18475714 -1.437 5772034
0.27645129 -0.18749428 -1.437 6298126
0.27645129 -0.18338856 -1.437 5970436
0.32845706 -0.20254855 -1.437 6570501
0.33256274 -0.20254855 -1.437 6832145
0.33256274 -0.19707428 -1.437 6701089
0.33529988 -0.19707428 -1.437 6700312
0.33529988 -0.19159999 -1.437 7093798
0.20476846 0.02198858 -1.4430001 4260106
0.20339417 0.027485725 -1.4430001 4391946
0.2029361 0.032524772 -1.4430002 3736841
0.2020199 0.042602867 -1.4430001 3475457
0.2029361 0.052680962 -1.4430002 3801857
0.20476846 0.057720009 -1.4430001 3737609
0.20476846 0.063217156 -1.4430001 3605518
0.20751703 0.017865725 -1.4430001 5580289
0.20751703 0.02198858 -1.4430001 5446419
0.20751703 0.026111439 -1.4430001 5441818
0.20751703 0.067340009 -1.4430001 2818308
0.20751703 0.071462862 -1.4430001 2949654
0.21301417 0.0082457243 -1.4430001 6303257
0.21163988 0.012368581 -1.4430001 6302990
0.21163988 0.016491439 -1.4430001 6369549
0.21301417 0.020614294 -1.4430001 6633258
0.21576275 0.0096200099 -1.4430001 6434318
0.21576275 0.012368581 -1.4430001 6500623
0.28310275 -0.18003142 -1.4430001 5971478
0.28310275 -0.17728284 -1.4430001 5840395
0.28447703 -0.17316 -1.4430001 5577473
0.33944848 -0.19239999 -1.4430001 6765109
0.34311324 -0.1818638 -1.4430002 4920072
0.20285988 0.037260011 -1.4490001 3606789
0.20285988 0.040020011 -1.4490001 3540993
0.20285988 0.046920009 -1.4490001 3475201
0.20699988 0.028980011 -1.4490001 4719638
0.20699988 0.03312001 -1.4490001 4260362
0.20699988 0.037260011 -1.4490001 4194562
0.20699988 0.041400008 -1.4490001 4129025
0.20561989 0.05106001 -1.4490001 3473665
0.20837988 0.057960011 -1.4490001 3277835
0.20837988 0.063480012 -1.4490001 2688264
0.21205989 0.022540011 -1.4490001 6566702
0.21205989 0.027140012 -1.4490001 6371873
0.21113989 0.07314001 -1.4490001 2228750
0.21113989 0.077280015 -1.4490001 2425349
0.21389988 0.084180012 -1.4490001 1507841
0.21665987 0.016560011 -1.4490001 6566159
0.21665987 0.020700011 -1.4490001 6567455
0.2884199 -0.1725 -1.4490001 5708306
0.2884199 -0.16836001 -1.4490001 5445398
0.2884199 -0.16421999 -1.4490001 5246471
0.29255989 -0.15731999 -1.4490001 5049093
0.29393989 -0.15318 -1.4490001 4984065
0.34085989 -0.18768001 -1.4490001 6368535
0.34637991 -0.18077999 -1.4490001 4854535
0.3477599 -0.17802 -1.4490001 4855049
0.20924272 0.034642864 -1.455 5243394
0.20785701 0.047114298 -1.455 3932418
0.20924272 0.052657153 -1.455 4194563
0.21478559 0.02910001 -1.455 6633747
0.21201415 0.033257149 -1.455 7027470
0.21201415 0.037414294 -1.455 7620379
0.21201415 0.041571435 -1.455 7622440
0.21201415 0.048500009 -1.455 6496786
0.21201415 0.052657153 -1.455 4719106
0.21293798 0.057738103 -1.4550002 4003335
0.21201415 0.06235715 -1.455 1966358
0.21201415 0.066514291 -1.455 1638663
0.21201415 0.070671439 -1.455 1966344
0.21478559 0.081757151 -1.455 1376769
0.21478559 0.08730001 -1.455 1704453
0.21478559 0.091457151 -1.455 2359816
0.21755701 0.023557153 -1.455 6567216
0.21755701 0.027714295 -1.455 6631710
0.29238561 -0.16212855 -1.455 5312011
0.29792845 -0.15242855 -1.455 5115138
0.29792845 -0.14688571 -1.455 4982792
0.34504274 -0.18707141 -1.455 5574669
0.34781417 -0.17598569 -1.455 4527105
0.35058561 -0.17598569 -1.455 5052687
0.35058561 -0.17044285 -1.455 4726277
0.21288845 0.04591715 -1.4610001 7029027
0.21659894 0.03293049 -1.4610002 7093017
0.21567132 0.037568584 -1.4610001 8674868
0.21706274 0.041742872 -1.4610001 9068106
0.21567132 0.048700012 -1.4610001 8148258
0.21567132 0.052874301 -1.4610001 7361281
0.21567132 0.05983144 -1.4610001 5975569
0.21567132 0.062614292 -1.4610001 5642018
0.21567132 0.065397158 -1.4610001 5374225
0.21567132 0.073745728 -1.4610001 3145985
0.21567132 0.077920012 -1.4610001 1507841
0.21845417 0.087660015 -1.4610001 918019
0.21845417 0.09740001 -1.4610001 2360579
0.35388657 -0.17300096 -1.4610002 5053195
0.35481417 -0.16697142 -1.4610001 4659458
0.35759705 -0.17114571 -1.4610001 5248269
0.35759705 -0.16697142 -1.4610001 5185305
0.36872846 -0.1516657 -1.4610001 5514243
0.36733705 -0.14888285 -1.4610001 5447681
0.21795417 0.046105728 -1.4670001 9001282
0.21655703 0.06846001 -1.4670001 5046529
0.21655703 0.071254298 -1.4670001 4784385
0.21935131 0.092211448 -1.4670001 1704452
0.2221456 0.097800009 -1.4670001 1638914
0.30317989 -0.14669999 -1.4670001 5508878
0.30317989 -0.14250857 -1.4670001 5246483
0.30737135 -0.14250857 -1.4670001 5379860
0.30876848 -0.13831714 -1.4670001 5511681
0.35766846 -0.16206856 -1.4670001 4331788
0.35906562 -0.15648 -1.4670001 3804676
0.36185992 -0.16067143 -1.4670001 4858392
0.36325705 -0.15648 -1.4670001 4857861
0.36325705 -0.15228857 -1.4670001 4791553
0.36744848 -0.15228857 -1.4670001 5513473
0.36744848 -0.14669999 -1.4670001 5380097
0.37163991 -0.14669999 -1.4670001 5383425
0.37117422 -0.14297429 -1.4670002 5317377
0.22024843 0.061725728 -1.473 9527083
0.22024843 0.067337148 -1.473 8805676
0.22024843 0.07154572 -1.473 7608086
0.22585988 0.098200008 -1.473 852225
0.31283703 -0.13607714 -1.473 5705730
0.31283703 -0.13186856 -1.473 5378051
0.37456274 -0.14168857 -1.473 5385217
0.37736845 -0.13607714 -1.473 5581318
0.37736845 -0.13327141 -1.473 5452038
0.37736845 -0.12765998 -1.473 5452040
0.22411415 0.063428573 -1.48 9466935
0.22411415 0.066247627 -1.48 9468743
0.22270463 0.073295251 -1.48 3938070
0.2212951 0.07752382 -1.48 655617
0.2212951 0.080342866 -1.48 655617
0.2212951 0.085980959 -1.48 786946
0.22411415 0.093028583 -1.48 1048834
0.31150466 -0.13672379 -1.48 5574658
0.31150466 -0.13390476 -1.48 5444867
0.31714272 -0.12262855 -1.48 5116198
0.37634274 -0.13813332 -1.48 5057025
0.37916178 -0.1254476 -1.48 5647366
0.37916178 -0.12262855 -1.48 5121797
0.37775224 -0.11839999 -1.48 3540226
0.38198084 -0.12262855 -1.48 5581315
0.38292056 -0.11793014 -1.48 5515009
0.38339037 -0.11276188 -1.48 4725261
0.38292056 -0.10665396 -1.48 3279370
0.22219224 0.083499059 -1.4860001 721153
0.22502273 0.069346674 -1.4860001 6635864
0.22502273 0.08916001 -1.4860001 590082
0.38777512 -0.10755809 -1.4860001 5122590
0.38824689 -0.10142539 -1.4860001 4333319
0.39202085 -0.10189713 -1.4860001 7954455
0.19751224 0.22735241 -1.4920001 9789518
0.20035414 0.22735241 -1.4920001 9920845
0.20887987 0.22735241 -1.4920001 9986368
0.21172176 0.22593145 -1.4920001 9918015
0.22877322 0.068205722 -1.4920001 7356979
0.22877322 0.072468579 -1.4920001 70423
0.2259313 0.076731436 -1.4920001 1376513
0.2259313 0.082415253 -1.4920001 524545
0.2259313 0.08667811 -1.4920001 590083
0.23303606 0.22024764 -1.4920001 9391933
0.23729891 0.22024764 -1.4920001 9787970
0.24014081 0.21740574 -1.4920001 9526862
0.24156177 0.22024764 -1.4920001 10381905
0.32255608 -0.12078094 -1.4920001 5381410
0.325398 -0.11651808 -1.4920001 5509643
0.325398 -0.11225523 -1.4920001 5442585
0.32634529 -0.10751872 -1.4920001 5444622
0.32681894 -0.096624747 -1.4920001 5575947
0.32681894 -0.09236189 -1.4920001 5313796
0.32823992 -0.08809904 -1.4920001 5443843
0.32823992 -0.083836183 -1.4920001 5509891
0.39218277 -0.096624747 -1.4920001 5515780
0.39218277 -0.09236189 -1.4920001 4658433
0.39218277 -0.08809904 -1.4920001 2295297
0.19558367 0.22699146 -1.4990001 9523786
0.20414938 0.22841908 -1.4990001 9985869
0.20700462 0.22841908 -1.4990001 9985862
0.21747383 0.22318448 -1.4990001 9786954
0.21699795 0.22699146 -1.4990001 10049616
0.22270843 0.22128098 -1.4990001 9588808
0.22841892 0.2227086 -1.4990001 9721412
0.2284189 0.22841908 -1.4990001 10382933
0.23270176 0.22413622 -1.4990001 9989422
0.23270176 0.22699146 -1.4990001 10515538
0.23698461 0.22413622 -1.4990001 10121782
0.23698461 0.22699146 -1.4990001 10711116
0.24412271 0.21271527 -1.4990001 8731448
0.24412271 0.21699812 -1.4990001 9132362
0.24126747 0.22413622 -1.4990001 10382666
0.24840558 0.21271527 -1.4990001 8867134
0.24840558 0.21699813 -1.4990001 9595715
0.25649545 0.20890827 -1.4990001 9592134
0.25839892 0.21271527 -1.4990001 10515784
0.26839226 0.20272192 -1.4990001 10644574
0.27267513 0.19701146 -1.4990001 9861736
0.27267513 0.2012943 -1.4990001 10512227
0.27553037 0.19843906 -1.4990001 10252102
0.28124085 0.18987335 -1.4990001 9926725
0.28124085 0.19272859 -1.4990001 10121541
0.29837227 0.16417621 -1.4990001 9920021
0.29837227 0.16845907 -1.4990001 10250550
0.3212142 -0.12134761 -1.4990001 5115412
0.32264179 -0.11849237 -1.4990001 5049601
0.32406941 -0.1127819 -1.4990001 5049089
0.32406941 -0.10849904 -1.4990001 4984327
0.32406941 -0.10278856 -1.4990001 5116428
0.32406941 -0.098505706 -1.4990001 5314311
0.32692465 -0.10136095 -1.4990001 5509400
0.33263513 -0.082801893 -1.4990001 5050885
0.39830559 -0.095650464 -1.4990001 7556871
0.39830559 -0.09279523 -1.4990001 7294212
0.39830559 -0.088512369 -1.4990001 5451777
0.39735386 -0.083277769 -1.4990001 3016449
0.40116087 -0.077091418 -1.4990001 4917763
0.40116087 -0.072808564 -1.4990001 3145985
0.1859789 0.22709526 -1.506 9457480
0.1869351 0.23283242 -1.506 10052955
0.18645701 0.23665716 -1.506 10449502
0.19267222 0.22709526 -1.506 9130054
0.19219415 0.2323543 -1.506 9857617
0.19219413 0.23665716 -1.506 10319452
0.1974532 0.23283242 -1.506 9989710
0.22231415 0.22661717 -1.506 9983560
0.22518271 0.22661717 -1.506 9984075
0.23091987 0.084622867 -1.506 393473
0.23091987 0.087491438 -1.506 327938
0.25386846 0.21370859 -1.506 9465662
0.25386846 0.21657716 -1.506 10776388
0.25960559 0.20653717 -1.506 8541266
0.26247418 0.20653717 -1.506 9460582
0.26247418 0.2122743 -1.506 10319199
0.27968562 0.18789145 -1.506 8870181
0.27825135 0.1921943 -1.506 9593668
0.27825135 0.19649716 -1.506 10188361
0.28255418 0.18645717 -1.506 9132598
0.28733513 0.17832953 -1.506 8013888
0.28685701 0.18215431 -1.506 9591122
0.28685704 0.18645717 -1.506 9857875
0.28685701 0.19219431 -1.506 10055749
0.29259419 0.16781145 -1.506 7089432
0.29259419 0.1721143 -1.506 7619613
0.2911599 0.17641716 -1.506 8671016
0.29785323 0.16303051 -1.506 8008718
0.29689702 0.16781145 -1.506 8599629
0.29785323 0.1725924 -1.506 9528680
0.29689702 0.17641716 -1.506 10316904
0.32271418 -0.11617713 -1.506 4721154
0.32271418 -0.11187427 -1.506 4590341
0.32558274 -0.11617713 -1.506 5116161
0.33418846 -0.077451408 -1.506 5249290
0.33418846 -0.073148556 -1.506 5183493
0.33705702 -0.076017126 -1.506 5448207
0.33849132 -0.071714267 -1.506 5445637
0.33849132 -0.067411415 -1.506 5510659
0.33801323 -0.06358666 -1.506 5578243
0.40303418 -0.091794275 -1.506 8604177
0.40303418 -0.087491415 -1.506 8471056
0.40303418 -0.083188564 -1.506 7681550
0.40303418 -0.064542845 -1.506 918017
0.40590274 -0.081754275 -1.506 8081941
0.40590274 -0.077451408 -1.506 6770181
0.40590274 -0.071714267 -1.506 5653761
0.40590274 -0.067411415 -1.506 4989697
0.40590274 -0.064542845 -1.506 4457217
0.40590274 -0.057371411 -1.506 3932417
0.17711987 0.22608003 -1.5120001 9262404
0.17999986 0.22608003 -1.5120001 9327925
0.18287987 0.23328002 -1.5120001 10115663
0.18287987 0.23760003 -1.5120001 10580806
0.18287987 0.24048002 -1.5120001 10710856
0.18575986 0.23184001 -1.5120001 9918551
0.23471987 0.073440015 -1.5120001 524546
0.23183987 0.077760004 -1.5120001 393473
0.23327987 0.083520018 -1.5120001 459009
0.23471987 0.087840006 -1.5120001 327938
0.23759988 0.072000012 -1.5120001 852226
0.23759988 0.096480012 -1.5120001 590081
0.2577599 0.21456002 -1.5120001 9990716
0.2577599 0.21744002 -1.5120001 10580296
0.26639989 0.20736001 -1.5120001 10446426
0.26639989 0.21168002 -1.5120001 10120793
0.29231989 0.18144003 -1.5120001 9725258
0.29231989 0.18720002 -1.5120001 10054206
0.29231989 0.19152002 -1.5120001 10054474
0.2951999 0.17712003 -1.5120001 10184520
0.29663989 0.18144003 -1.5120001 10053715
0.30383989 0.0014400133 -1.5120001 3409184
0.3028799 0.15216003 -1.5120001 6692644
0.30383989 0.15840003 -1.5120001 8078640
0.30383989 0.16272001 -1.5120001 9134597
0.30383989 0.16704002 -1.5120001 9990659
0.30815989 -0.0028799865 -1.5120001 2425613
0.3067199 0.0014400134 -1.5120001 2228496
0.3067199 0.15264003 -1.5120001 7804960
0.30767989 0.15888004 -1.5120001 9986643
0.30815989 0.16272001 -1.5120001 10186078
0.3067199 0.16560002 -1.5120001 10055215
0.31247988 0.13824002 -1.5120001 6178832
0.31247988 0.14256002 -1.5120001 7949859
0.31679988 0.13248003 -1.5120001 8208673
0.31631988 0.13776003 -1.5120001 9004832
0.32399988 0.12240002 -1.5120001 9531989
0.32255989 0.12672003 -1.5120001 9268036
0.3211199 0.13824002 -1.5120001 10184525
0.32831991 0.11232002 -1.5120001 9330716
0.32831991 0.11808002 -1.5120001 9794132
0.32831991 0.12240002 -1.5120001 9923678
0.32783991 0.12624003 -1.5120001 10053960
0.32687992 0.13248003 -1.5120001 10118734
0.3326399 0.10800003 -1.5120001 10185497
0.3326399 0.11232002 -1.5120001 9988639
0.34127989 -0.061919991 -1.5120001 5578243
0.40751991 -0.087839983 -1.5120001 8411680
0.40751991 -0.084959991 -1.5120001 8214052
0.40751991 -0.051839981 -1.5120001 3604993
0.40751991 -0.047519986 -1.5120001 3015937
0.40751991 -0.044639982 -1.5120001 3015937
0.41039988 -0.082079992 -1.5120001 8672044
0.41039988 -0.077759981 -1.5120001 8673050
0.41039988 -0.070559986 -1.5120001 8739610
0.41039988 -0.067679986 -1.5120001 8412954
0.41039988 -0.063359991 -1.5120001 7617303
0.41039988 -0.056159984 -1.5120001 5571081
0.41039988 -0.051839981 -1.5120001 4325641
0.41039988 -0.047519986 -1.5120001 2883846
0.4118399 -0.038879983 -1.5120001 4400153
0.41327989 -0.03311998 -1.5120001 6766922
0.1678132 0.23002 -1.5190001 9129807
0.17215319 0.23002002 -1.5190001 9129273
0.1764932 0.23146668 -1.5190001 9326412
0.17793985 0.23580669 -1.5190001 10249827
0.18083318 0.23146668 -1.5190001 9391437
0.18083318 0.23725335 -1.5190001 10513241
0.18083318 0.24159335 -1.5190001 10711637
0.2372532 0.078120008 -1.5190001 590082
0.2372532 0.082460009 -1.5190001 459009
0.24448653 0.067993343 -1.5190001 1769734
0.24303986 0.072333343 -1.5190001 1442054
0.24303986 0.078120016 -1.5190001 1507585
0.24737988 0.066546671 -1.5190001 1638661
0.25171989 0.062206678 -1.5190001 1573377
0.27052656 0.20976669 -1.5190001 10513478
0.27052656 0.21266003 -1.5190001 10185289
0.29367325 0.011573346 -1.5190001 4600071
0.29367325 0.015913347 -1.5190001 2621701
0.2994599 0.004340013 -1.5190001 4602655
0.29801324 0.0072333463 -1.5190001 3936035
0.30235323 0.004340013 -1.5190001 2229528
0.30813986 0.14756002 -1.5190001 5507861
0.31103322 0.13164668 -1.5190001 5775876
0.31103322 0.14177336 -1.5190001 6625555
0.31247988 0.14756002 -1.5190001 8602152
0.31247988 0.15334669 -1.5190001 9728291
0.31247988 0.15768668 -1.5190001 10057555
0.31874877 0.14225559 -1.5190001 9858097
0.31778431 0.1470778 -1.5190001 10186305
0.32260653 0.12152001 -1.5190001 7420991
0.32260653 0.13309334 -1.5190001 9661776
0.32549989 0.13309334 -1.5190001 10119503
0.32549989 0.13743335 -1.5190001 9988181
0.33273321 0.10271335 -1.5190001 6767657
0.33273321 0.10560668 -1.5190001 8410650
0.33707321 0.099820018 -1.5190001 9658197
0.33707321 0.10271335 -1.5190001 9919808
0.33707321 0.10850002 -1.5190001 10315300
0.34285989 0.086800024 -1.5190001 7291687
0.34719989 0.082460016 -1.5190001 8341783
0.34575322 0.085353352 -1.5190001 8282416
0.35153988 0.078120023 -1.5190001 8475477
0.40940654 -0.041953318 -1.5190001 3081475
0.40940654 -0.027486648 -1.5190001 5441032
0.40844211 -0.023628872 -1.5190001 5443600
0.41229987 -0.085353322 -1.5190001 8541501
0.41229987 -0.073779985 -1.5190001 8673051
0.41229987 -0.043399982 -1.5190001 2753031
0.41229987 -0.036166649 -1.5190001 3087900
0.41229987 -0.031826649 -1.5190001 5257764
0.41229987 -0.027486648 -1.5190001 7225379
0.4151932 -0.050633315 -1.5190001 6508562
0.4151932 -0.047739983 -1.5190001 5917196
0.4151932 -0.043399982 -1.5190001 5849356
0.41663986 -0.036166649 -1.5190001 7557677
0.4171221 -0.031344425 -1.5190001 8474169
0.41663986 -0.027486648 -1.5190001 8409656
0.16847605 0.23383334 -1.5250001 9126472
0.16847605 0.2367381 -1.5250001 9127240
0.17283319 0.23383336 -1.5250001 9392689
0.17283319 0.23673812 -1.5250001 9656116
0.17573795 0.23673812 -1.5250001 10051147
0.25416657 0.05809525 -1.5250001 1376514
0.25803959 0.057611126 -1.5250001 1966337
0.26288086 0.05373811 -1.5250001 2490625
0.26288086 0.056642871 -1.5250001 2359553
0.2657856 0.047928587 -1.5250001 2097409
0.28321418 0.027595254 -1.5250001 2294017
0.28224593 0.032436524 -1.5250001 2818305
0.29338086 0.017428586 -1.5250001 2427406
0.33695227 0.0929524 -1.5250001 6104367
0.33840466 0.097309537 -1.5250001 9392205
0.33840466 0.10602383 -1.5250001 10119211
0.34130943 0.087142885 -1.5250001 6167046
0.34227771 0.092468277 -1.5250001 8475722
0.35196024 0.072134942 -1.5250001 6429477
0.35583323 0.066809542 -1.5250001 5114899
0.35583323 0.072619066 -1.5250001 8072256
0.35583323 0.07697621 -1.5250001 9396553
0.40666658 -0.021785697 -1.5250001 3868433
0.41392848 -0.023238078 -1.5250001 8607267
0.41683322 -0.023238078 -1.5250001 8609079
0.16779034 0.24074286 -1.5320001 9458767
0.17216748 0.24074288 -1.5320001 10317117
0.17849001 0.24171557 -1.5320001 10647392
0.25825131 0.053984776 -1.5320001 1638657
0.26214212 0.052039381 -1.5320001 2162945
0.26700562 0.051066682 -1.5320001 2687233
0.28743228 0.024803823 -1.5320001 2425089
0.28743228 0.027721919 -1.5320001 2687233
0.29132307 0.023831125 -1.5320001 2621697
0.31953132 -0.013131415 -1.5320001 3735812
0.32244942 -0.01604951 -1.5320001 3080455
0.32244942 -0.013131415 -1.5320001 1114372
0.32536751 -0.017508557 -1.5320001 3014917
0.32536751 -0.013131415 -1.5320001 1900804
0.33266276 -0.027721891 -1.5320001 2491928
0.33849895 -0.030639986 -1.5320001 786691
0.33849895 -0.027721891 -1.5320001 1638659
0.34287608 -0.037935227 -1.5320001 3474449
0.34287608 -0.032099035 -1.5320001 2097415
0.34579417 -0.039394274 -1.5320001 5050639
0.35746658 0.059820972 -1.5320001 5905204
0.35746658 0.062739059 -1.5320001 5902620
0.36184371 0.05398478 -1.5320001 5443598
0.36184371 0.059820972 -1.5320001 5644322
0.36184371 0.062739059 -1.5320001 5841692
0.36184371 0.067116208 -1.5320001 7752742
0.36184371 0.072952397 -1.5320001 9070928
0.36767989 0.052525733 -1.5320001 5707035
0.36767989 0.058361925 -1.5320001 7879703
0.36767989 0.062739059 -1.5320001 8610869
0.36767989 0.067116208 -1.5320001 9201235
0.36622083 0.07149335 -1.5320001 9397572
0.37351608 0.04668954 -1.5320001 7022611
0.37351608 0.052525733 -1.5320001 8542020
0.37302977 0.057875574 -1.5320001 9068113
0.37789324 0.042312399 -1.5320001 7422807
0.37789324 0.04668954 -1.5320001 8609609
0.37789324 0.051066685 -1.5320001 9590858
0.40415609 -0.016049508 -1.5320001 4134165
0.40853322 -0.016049506 -1.5320001 4990239
0.40853322 -0.011672364 -1.5320001 6633512
0.40999225 -0.0072952206 -1.5320001 9068093
0.40999225 -0.0043771253 -1.5320001 8938057
0.41291037 -0.017508553 -1.5320001 6770695
0.41291037 -0.011672364 -1.5320001 8346671
0.41291037 -0.0072952202 -1.5320001 8936786
0.41291037 -0.0043771248 -1.5320001 8805735
0.41680118 -0.017994903 -1.5320001 9001507
0.16709128 0.24477428 -1.539 9068357
0.16709128 0.24770571 -1.539 9991489
0.17295414 0.2447743 -1.539 11169860
0.17295414 0.24770573 -1.539 10974028
0.17735128 0.2447743 -1.539 11171411
0.17735128 0.24770573 -1.539 10908755
0.25796559 0.052765723 -1.539 2295306
0.30047128 0.019054299 -1.539 2883841
0.30047128 0.18907717 -1.539 10052933
0.30047128 0.1920086 -1.539 10119754
0.34737414 -0.0425057 -1.539 5443086
0.37961987 0.033711441 -1.539 5046545
0.37961987 0.038108587 -1.539 6166038
0.38255128 0.033711441 -1.539 4988956
0.38255128 0.038108587 -1.539 8210737
0.38255128 0.04250573 -1.539 9397844
0.38255128 0.046902873 -1.539 9527360
0.38694844 0.027848588 -1.539 6559511
0.38841414 0.030780017 -1.539 8477205
0.39281127 0.023451446 -1.539 8277579
0.40307128 -0.0073285536 -1.539 4131841
0.40307128 -0.004397125 -1.539 5310721
0.40746841 -0.0073285536 -1.539 4991775
0.40795702 -0.003419982 -1.539 7357987
0.40893415 0.0043971604 -1.539 8939042
0.40893415 0.007328589 -1.539 8871458
0.40893415 0.010260019 -1.539 8871215
0.4133313 -0.0014656963 -1.539 8740425
0.4133313 0.0029314468 -1.539 8871737
0.41186556 0.0073285894 -1.539 8872237
0.29153129 0.019140966 -1.5460001 5058834
0.29005891 0.02208573 -1.5460001 2236690
0.29594845 0.019140966 -1.5460001 2490625
0.38723606 0.033864781 -1.5460001 7298086
0.38723606 0.038281929 -1.5460001 8741452
0.38723606 0.042699069 -1.5460001 9331282
0.38723606 0.045643829 -1.5460001 9396288
0.39312559 0.027975257 -1.5460001 8420161
0.39214402 0.032883197 -1.5460002 9263659
0.39018083 0.042699069 -1.5460001 9265200
0.39901513 0.011779065 -1.5460001 6954274
0.39901513 0.017668588 -1.5460001 8016191
0.39901513 0.022085734 -1.5460001 9590617
0.39754274 0.026502876 -1.5460001 9461085
0.39607033 0.030920019 -1.5460001 9333044
0.40343228 -0.0014723635 -1.5460001 5441548
0.40343225 0.0029447798 -1.5460001 5642277
0.40343228 0.0073619229 -1.5460001 7158604
0.4029415 0.01226986 -1.5460002 8803388
0.40343225 0.017668588 -1.5460001 9133378
0.4019599 0.022085734 -1.5460001 9592145
0.4078494 -0.0014723632 -1.5460001 8469275
0.4078494 0.00294478 -1.5460001 8801577
0.4078494 0.0073619229 -1.5460001 8936516
0.4078494 0.011779065 -1.5460001 8870977
0.4078494 0.01619621 -1.5460001 8871242
0.41226652 0.0014723991 -1.5460001 8806442
0.41079417 0.013251447 -1.5460001 8937020
0.39194748 0.038455259 -1.5530001 9331516
0.40673795 0.010353351 -1.5530001 8806997
