# .PCD v0.7 - Point Cloud Data file format
VERSION 0.7
FIELDS x y z rgba
SIZE 4 4 4 4
TYPE F F F U
COUNT 1 1 1 1
WIDTH 1141
HEIGHT 1
VIEWPOINT 0 0 0 1 0 0 0
POINTS 1141
DATA ascii
0.1527251 -0.19991353 -1.2524053 6102558
0.15369225 -0.19556166 -1.2544744 6300976
0.15453911 -0.19085607 -1.252751 6104868
0.15584737 -0.18476635 -1.2547504 6432290
0.15692222 -0.18004635 -1.257513 6760501
0.15774256 -0.17629093 -1.2590153 6958130
0.097748518 -0.45902586 -1.1810813 4994867
0.098502994 -0.45530471 -1.1814047 5586723
0.099553585 -0.45028514 -1.1825024 5519892
0.1006763 -0.44502014 -1.1840625 5189135
0.10135877 -0.44154432 -1.1839232 5977366
0.14288807 -0.24705589 -1.242723 4786450
0.14378619 -0.24284388 -1.2439711 4852745
0.14461243 -0.23887733 -1.2447567 4918539
0.14536679 -0.23515616 -1.2450799 4853766
0.15771592 -0.17724113 -1.2622411 6761784
0.15860522 -0.17334583 -1.2645645 7023927
0.15957516 -0.16888842 -1.2662749 7024666
0.16053438 -0.16435337 -1.267463 6827297
0.096814871 -0.46450475 -1.1841344 2623489
0.097425461 -0.46127445 -1.1835327 2821400
0.11073577 -0.39921871 -1.2034798 3809104
0.1116339 -0.39500669 -1.204728 3872279
0.11230755 -0.39184773 -1.205664 3482651
0.1138792 -0.38447666 -1.2078482 3745570
0.11455274 -0.38131773 -1.2087843 3742738
0.11545098 -0.37710565 -1.2100322 4397606
0.11657357 -0.37184069 -1.2115924 4530465
0.12151325 -0.34867465 -1.2184569 4469542
0.12241143 -0.34446263 -1.2197051 5058856
0.12330955 -0.34025064 -1.2209532 5124940
0.12443215 -0.33498561 -1.2225132 4795420
0.12510574 -0.33182663 -1.2234492 4729137
0.12757552 -0.3202436 -1.2268815 3215875
0.1284737 -0.31603158 -1.2281297 2298128
0.12937176 -0.31181961 -1.2293777 3875626
0.14082289 -0.25811654 -1.245291 4263430
0.14149648 -0.25495753 -1.246227 4460293
0.14252019 -0.24974394 -1.2460183 4983047
0.15879416 -0.17355971 -1.2691774 7220776
0.15946782 -0.17040074 -1.2701137 6959640
0.16059041 -0.16513577 -1.2716737 6828562
0.16171312 -0.15987071 -1.2732339 6696250
0.16237777 -0.15702844 -1.2752452 7021114
0.093635917 -0.48051369 -1.184067 1312303
0.094631016 -0.47562709 -1.1845797 1180687
0.095665574 -0.47071993 -1.1857998 1574936
0.096348047 -0.46724427 -1.1856607 2035208
0.12441444 -0.33561906 -1.2246636 5124130
0.1256448 -0.32998598 -1.2269175 5254447
0.12665081 -0.32540581 -1.2288592 5057592
0.12754893 -0.32119381 -1.2301073 3415592
0.12844706 -0.31698179 -1.2313554 2034713
0.12956965 -0.31171679 -1.2329156 3478060
0.13062048 -0.30669719 -1.2340133 4004156
0.13159049 -0.30223978 -1.2357239 4334115
0.13247967 -0.29834446 -1.2380471 4006410
0.13315332 -0.29518548 -1.2389832 4335910
0.1340515 -0.29097342 -1.2402313 4666144
0.13652134 -0.27939045 -1.2436635 6047006
0.13719487 -0.27623147 -1.2445996 6442253
0.13876653 -0.26886046 -1.2467837 3541505
0.13966471 -0.26464844 -1.2480319 3869185
0.14057171 -0.26011971 -1.2482047 4459781
0.14147866 -0.25559098 -1.2483774 4394762
0.15944117 -0.17135091 -1.2733395 6697759
0.16056383 -0.16608591 -1.2748995 6960403
0.16168642 -0.16082092 -1.2764597 7088178
0.16249788 -0.15738219 -1.2790375 7219484
0.1634649 -0.15303031 -1.2811062 6892584
0.16458762 -0.14776532 -1.2826666 6762005
0.16579098 -0.14193815 -1.2836138 6695946
0.16661727 -0.13797158 -1.2843994 6564124
0.16750652 -0.13407628 -1.2867228 6826550
0.16818005 -0.13091731 -1.2876588 6826545
0.093375862 -0.48283356 -1.188056 1443605
0.094372749 -0.47807986 -1.1891305 1770764
0.1374706 -0.27567208 -1.247883 6639161
0.13851535 -0.27086365 -1.2496974 5448204
0.13963807 -0.26559862 -1.2512577 4000011
0.16277361 -0.15682277 -1.2823209 7286038
0.16367173 -0.15261078 -1.2835689 6761767
0.16456985 -0.14839877 -1.284817 6696469
0.16561174 -0.14369592 -1.2869898 6892558
0.16659057 -0.13892174 -1.2876251 7349294
0.16748875 -0.13470979 -1.2888732 7088705
0.16860557 -0.1296559 -1.2911503 6892841
0.16976476 -0.1244759 -1.2937763 7024664
0.17066288 -0.12026388 -1.2950244 6959399
0.17151254 -0.1163892 -1.2966402 7156781
0.17241061 -0.11217719 -1.2978883 7223592
0.17359239 -0.1067923 -1.3001519 7287602
0.17465591 -0.1016472 -1.3010086 7156515
0.17555404 -0.097435169 -1.3022566 7156759
0.1764037 -0.09356048 -1.3038723 7289883
0.17756599 -0.088274874 -1.3061402 7618089
0.1786797 -0.083326615 -1.3087754 7814713
0.090852737 -0.49631694 -1.1910753 2034698
0.091607094 -0.49259579 -1.1913985 1968898
0.092511177 -0.48817265 -1.1919298 1902596
0.093340337 -0.48410049 -1.1923571 2229514
0.094157755 -0.48045063 -1.1942179 2689288
0.17080337 -0.12081505 -1.3000051 7091239
0.17147696 -0.11765608 -1.3009412 7156796
0.17259961 -0.11239109 -1.3025014 7092013
0.17327327 -0.10923209 -1.3034375 7091763
0.17551851 -0.098702066 -1.3065577 6959642
0.17641664 -0.094490103 -1.3078057 7223567
0.17753041 -0.08954183 -1.3104411 7356701
0.17865312 -0.084276758 -1.3120012 7224631
0.1794734 -0.080521375 -1.3135037 7813190
0.18044043 -0.076169521 -1.3155726 8010284
0.18133855 -0.071957491 -1.3168207 7879723
0.090826035 -0.49726713 -1.194301 2821900
0.091284037 -0.49484435 -1.1938499 2691336
0.17795289 -0.088385962 -1.314291 7485470
0.17854571 -0.085789099 -1.3158398 7746350
0.17952454 -0.081014983 -1.3164752 7812938
0.18042266 -0.076802947 -1.3177233 7944731
0.18154538 -0.071537942 -1.3192834 7749153
0.18265021 -0.066906407 -1.322994 7617308
0.089434505 -0.50516868 -1.1978052 3344674
0.090116978 -0.50169301 -1.1976659 3148314
0.18351287 -0.063961312 -1.3285429 7616573
0.18441099 -0.059749283 -1.3297911 7682603
0.18530905 -0.055537276 -1.3310393 7814182
0.08851862 -0.51001418 -1.1987076 4267560
0.18460888 -0.059646465 -1.333329 7682335
0.18550694 -0.055434465 -1.334577 7878696
0.18631345 -0.051707014 -1.3359153 7880245
0.18744993 -0.046414025 -1.3376397 8143157
0.08712703 -0.51791579 -1.2022117 5190189
0.18682754 -0.05006665 -1.3396748 7881001
0.18772566 -0.045854636 -1.340923 8208433
0.18839031 -0.043012373 -1.3429343 8340285
0.18927956 -0.039117053 -1.3452576 8799570
0.19039339 -0.034168787 -1.3478931 9062963
0.19081581 -0.033012934 -1.3517427 8932666
0.19140267 -0.030627236 -1.3540086 8801369
0.19216293 -0.026694983 -1.353615 8670282
0.19326782 -0.022063419 -1.3573256 8668745
0.19416595 -0.01785139 -1.3585737 8471875
0.19466615 -0.01623898 -1.3621691 8471868
0.19556427 -0.012026966 -1.3634173 8472378
0.19637573 -0.0085882843 -1.3659949 8537147
0.19704938 -0.0054292977 -1.366931 8536635
0.19732499 -0.0048698783 -1.3702143 8472133
0.19791186 -0.0024841651 -1.3724802 8536645
0.19742739 -0.0058570877 -1.376157 8406073
0.19805247 -0.0030353889 -1.3774608 8537912
0.1992147 0.0022502169 -1.3797286 8669249
0.20033735 0.0075151995 -1.3812888 8801333
0.20123547 0.011727221 -1.3825368 8604205
0.20190024 0.014569499 -1.3845481 8474151
0.19739181 -0.0071239844 -1.3804581 7161644
0.19948149 0.0024928674 -1.3840872 7226436
0.20030183 0.0062483251 -1.3855896 7094577
0.20120001 0.010460362 -1.386838 7290923
0.20202029 0.014215738 -1.3883402 7488297
0.20321184 0.019620582 -1.3907213 7618357
0.2043345 0.024885587 -1.3922814 7815199
0.22162336 0.10596672 -1.4163072 8141095
0.22207236 0.10807273 -1.4169312 8338986
0.20184696 0.012669124 -1.3909997 7025960
0.2031852 0.018670425 -1.393947 7157548
0.20408332 0.022882439 -1.3951951 7092251
0.21754628 0.085745752 -1.4149917 5578773
0.21821982 0.088904798 -1.4159279 5972768
0.219118 0.09311676 -1.417176 6301475
0.22013283 0.098013625 -1.4180423 6826536
0.22137225 0.10396352 -1.4192208 7551003
0.22227919 0.10849227 -1.4193937 8142113
0.22315955 0.1120708 -1.4227923 7548715
0.22429997 0.11796923 -1.422202 7356496
0.2249558 0.12049484 -1.4252886 6034474
0.20270944 0.015614256 -1.3965487 6959643
0.21662152 0.080583602 -1.4169694 4394246
0.21729511 0.083742574 -1.4179056 4983312
0.21841776 0.089007616 -1.4194657 5378599
0.21886683 0.091113597 -1.4200897 5641766
0.21639752 0.078157589 -1.4220961 6890258
0.21720934 0.082075059 -1.4227893 7086874
0.21814883 0.086370945 -1.4245298 7613716
0.21721518 0.080892041 -1.4275827 8008740
0.17728293 -0.12618735 -1.450397 4392705
0.17840552 -0.12092232 -1.451957 3802370
0.17930365 -0.11671035 -1.4532051 3868427
0.17997724 -0.11355133 -1.4541413 3934727
0.17644817 -0.13161486 -1.4552187 4000517
0.17724735 -0.12745425 -1.454698 3999745
0.1784867 -0.1215044 -1.4558765 3671300
0.17926812 -0.11797725 -1.4575062 3934223
0.17994177 -0.11481825 -1.4584422 3868938
0.18241161 -0.10323522 -1.4618745 3868420
0.18577945 -0.0874402 -1.4665548 4196866
0.19833547 -0.029105589 -1.4861786 4196866
0.19968259 -0.022787593 -1.4880507 4065538
0.20035625 -0.019628599 -1.4889868 4262151
0.20125437 -0.015416577 -1.4902349 4263442
0.20237708 -0.01015158 -1.4917951 4327685
0.23740375 0.1541166 -1.5404707 7814162
0.23875093 0.16043454 -1.5423428 8143687
0.23942459 0.16359359 -1.5432788 8467491
0.24032271 0.16780564 -1.5445271 10389081
0.17539781 -0.1377786 -1.4586533 4393217
0.17630482 -0.13324988 -1.4588261 4196098
0.17721182 -0.12872121 -1.4589989 4195849
0.17923266 -0.11924416 -1.4618071 3606287
0.18043798 -0.11381133 -1.4643523 3606274
0.18147784 -0.10871413 -1.4649273 3673345
0.19876683 -0.027633041 -1.4889531 4459014
0.1994403 -0.024474062 -1.4898893 4262149
0.20033848 -0.020262025 -1.4911375 4393476
0.20101207 -0.017103054 -1.4920735 4590349
0.21626246 0.053867579 -1.5154415 4460545
0.23512292 0.14231966 -1.5416516 6958610
0.23647022 0.14863771 -1.5435238 7288080
0.23716152 0.15243012 -1.5423093 7683082
0.24052942 0.16822517 -1.5469896 11568234
0.17432034 -0.14374834 -1.4607813 4787969
0.17507476 -0.14002725 -1.4611045 4459010
0.21624464 0.05323416 -1.5175921 4263169
0.23449457 0.13845593 -1.5444037 6434070
0.23532975 0.14273922 -1.544114 6827550
0.23600334 0.14589819 -1.5450501 7090466
0.17219222 -0.15473768 -1.4618118 4657666
0.17332381 -0.14915596 -1.4622966 4985096
0.23372245 0.13410133 -1.5462309 6107157
0.1685375 -0.17380282 -1.4643462 4132357
0.17018998 -0.16586964 -1.4659175 4262401
0.17080063 -0.16263932 -1.4653158 4785921
0.17171645 -0.15779385 -1.4644135 4852481
0.16446048 -0.19402376 -1.4630307 4065537
0.16513407 -0.19086471 -1.4639667 4066049
0.16580766 -0.18770573 -1.4649028 3868163
0.16717267 -0.18075424 -1.4646244 4328197
0.1689688 -0.17233023 -1.4671206 4329221
0.16038346 -0.21424465 -1.4617153 4131073
0.16128147 -0.21003267 -1.4629633 4132621
0.16197288 -0.20624022 -1.461749 3934471
0.16309559 -0.20097516 -1.463309 4131075
0.16399366 -0.19676319 -1.4645572 4131073
0.15810257 -0.22604156 -1.4628961 4065029
0.15900075 -0.22182958 -1.4641442 4327682
0.15991664 -0.21698411 -1.4632418 4392706
0.15603739 -0.2371022 -1.465464 5117712
0.15692669 -0.23320691 -1.4677875 5449729
0.15773481 -0.22872958 -1.4661914 4921352
0.15898299 -0.222463 -1.4662946 4921603
0.15623528 -0.23699936 -1.4690018 5713674
0.15690887 -0.23384038 -1.469938 5778945
0.1428839 -0.30979228 -1.4906889 6042426
0.14355743 -0.30663329 -1.491625 5777441
0.14445561 -0.30242127 -1.4928731 5712945
0.14285731 -0.31074244 -1.4939146 5843489
0.14330637 -0.30863643 -1.4945388 5842713
0.14818412 -0.1993975 -1.2412353 5513734
0.14885998 -0.1962278 -1.2421746 5644069
0.1497612 -0.19200148 -1.2434268 5841446
0.150437 -0.18883175 -1.2443662 5973276
0.14193952 -0.23020136 -1.2385596 4852993
0.14295781 -0.22528788 -1.239429 4984068
0.14386785 -0.22074379 -1.2396023 5051406
0.14476907 -0.21651743 -1.2408547 5183519
0.14566135 -0.21260893 -1.243186 5315117
0.14678764 -0.20732601 -1.2447515 5186311
0.14788175 -0.2018095 -1.2447438 5644809
0.14882421 -0.19749898 -1.2464901 5904922
0.14972544 -0.19327268 -1.2477427 6038560
0.15091056 -0.18764618 -1.2491165 6105616
0.15193701 -0.18279111 -1.2503791 6302224
0.1529212 -0.17839637 -1.25262 6563625
0.1536938 -0.17503017 -1.2547122 6760750
0.15488946 -0.16960692 -1.2571013 7284262
0.15609694 -0.16375995 -1.2580519 7154710
0.15669179 -0.16115429 -1.2596059 7153952
0.15759301 -0.156928 -1.2608583 6892072
0.13984013 -0.24110493 -1.2398254 4788492
0.14066923 -0.23712483 -1.2406137 4919556
0.14180458 -0.2315242 -1.2411002 4918273
0.14721167 -0.20616625 -1.2486143 5775624
0.14766228 -0.20405309 -1.2492404 5906957
0.149014 -0.19771364 -1.2511189 6036515
0.14968991 -0.1945439 -1.252058 6104363
0.15463746 -0.17161694 -1.260025 7350571
0.15576375 -0.16633405 -1.2615902 6957846
0.15689033 -0.16105115 -1.2631557 6630718
0.1577915 -0.15682481 -1.2644081 6958655
0.15846741 -0.15365508 -1.2653475 7154227
0.13656938 -0.25773233 -1.2403729 4131854
0.13770467 -0.25213158 -1.2408593 4524565
0.15528655 -0.16940063 -1.2642009 7024926
0.15708899 -0.16094798 -1.2667056 6762055
0.15775591 -0.15809602 -1.2687238 6761019
0.15865707 -0.15386972 -1.2699761 6958128
0.15977466 -0.14890465 -1.2726204 6958081
0.16083193 -0.14376202 -1.2733622 6958358
0.1620276 -0.1383388 -1.2757514 6434312
0.16270351 -0.13516909 -1.2766905 6565383
0.16337937 -0.13199931 -1.2776299 6762267
0.090799153 -0.47348922 -1.1811323 3415080
0.091475129 -0.47031951 -1.1820716 2886692
0.092312932 -0.46602169 -1.1817811 3083803
0.10589379 -0.40269834 -1.2021091 3550490
0.10951638 -0.3851575 -1.2049605 4071449
0.11041754 -0.3809312 -1.2062128 3873813
0.11852807 -0.34289432 -1.2174838 5713453
0.11964864 -0.33782327 -1.2197685 4858663
0.12078106 -0.33232847 -1.2206147 4331306
0.12159526 -0.32887813 -1.2232013 4465699
0.12257445 -0.32419372 -1.2241982 4136721
0.1237098 -0.31859294 -1.2246847 3215638
0.12483633 -0.31331003 -1.2262502 4005667
0.12580669 -0.30894345 -1.2283263 4797237
0.12662077 -0.30549306 -1.2309127 4998727
0.12752199 -0.30126676 -1.2321651 4924731
0.1286484 -0.29598385 -1.2337303 5453105
0.13135195 -0.28330487 -1.2374876 5390093
0.13270378 -0.27696538 -1.2393661 5388050
0.1340555 -0.27062592 -1.2412446 3343383
0.13474029 -0.26713836 -1.2411048 3344899
0.13564157 -0.26291203 -1.2423573 3803908
0.1364705 -0.25893199 -1.2431455 4132104
0.13745272 -0.25414157 -1.2437829 4591120
0.15869951 -0.15468279 -1.2740365 6892079
0.15974784 -0.149858 -1.2758572 6892566
0.16087431 -0.1445751 -1.2774225 6827034
0.16177559 -0.14034878 -1.2786748 6695963
0.16267675 -0.13612249 -1.2799273 6433808
0.16357785 -0.13189615 -1.2811795 6630431
0.16469538 -0.12693107 -1.2838238 6892298
0.16582191 -0.12164817 -1.2853893 7024403
0.086482942 -0.49483544 -1.1794994 3282998
0.08760941 -0.48955259 -1.1810648 2491924
0.088735938 -0.48426965 -1.1826303 1509421
0.089880109 -0.47835118 -1.1820378 1183005
0.12772942 -0.30084577 -1.2346359 4400423
0.1286307 -0.29661942 -1.2358882 4927266
0.12975717 -0.29133654 -1.2374537 4993831
0.13065827 -0.28711021 -1.2387061 5126671
0.13155943 -0.28288388 -1.2399583 5455900
0.1326859 -0.277601 -1.2415237 6177045
0.13380349 -0.27263588 -1.244168 4593161
0.13471359 -0.2680918 -1.2443416 3475457
0.13561475 -0.26386547 -1.245594 4000258
0.15881991 -0.15503776 -1.2778416 7087645
0.1597212 -0.15081137 -1.279094 6958367
0.16084766 -0.14552851 -1.2806594 6827029
0.16152352 -0.14235881 -1.2815986 6695956
0.16355115 -0.13284956 -1.2844162 6565163
0.16476059 -0.12739825 -1.2869701 6827564
0.16579515 -0.12260157 -1.2886261 7024676
0.16669631 -0.11837521 -1.2898784 7025971
0.16758865 -0.11446672 -1.2922096 6959915
0.16883218 -0.10849664 -1.2933922 7287845
0.16985047 -0.10358315 -1.2942616 7352864
0.17075157 -0.0993568 -1.2955139 7548956
0.17165285 -0.095130488 -1.2967662 7287570
0.17255396 -0.090904146 -1.2980185 7288624
0.17356336 -0.08630845 -1.2999669 7550791
0.083518445 -0.50984222 -1.179745 4140563
0.084563911 -0.50512338 -1.1819253 2360864
0.085587502 -0.50024879 -1.1830568 918028
0.08644712 -0.49610662 -1.183815 918548
0.087573647 -0.49082381 -1.1853805 1115911
0.08847487 -0.48659751 -1.1866328 1247244
0.16509259 -0.12672472 -1.2909235 7025461
0.16914785 -0.10770628 -1.296559 7615526
0.16959846 -0.1055931 -1.2971852 7484199
0.17275256 -0.09080103 -1.3015683 7420208
0.17365366 -0.086574681 -1.3028208 7681594
0.17477131 -0.081609569 -1.3054651 7878707
0.17565465 -0.078018889 -1.3088752 8074314
0.17654693 -0.074110329 -1.3112065 8271422
0.17744809 -0.069884039 -1.3124588 7944492
0.085726857 -0.50086546 -1.1882703 1640459
0.086330593 -0.49794191 -1.1887455 1706759
0.087087512 -0.49420816 -1.18907 1707267
0.17585325 -0.077915706 -1.3124251 8009288
0.17652911 -0.074745931 -1.3133643 8140093
0.17776376 -0.069093667 -1.3156257 7747891
0.17877311 -0.064497977 -1.3175739 7617836
0.085691214 -0.50213665 -1.1925859 2623505
0.086141765 -0.50002348 -1.193212 2755087
0.17874634 -0.065451376 -1.3208107 7552549
0.17962974 -0.061860621 -1.3242209 7616815
0.18053085 -0.057634331 -1.3254731 7747894
0.084601164 -0.50844449 -1.1958001 3213338
0.08521384 -0.50520319 -1.1951965 3084311
0.17961192 -0.062496215 -1.3263788 7551025
0.18051308 -0.058269925 -1.327631 7682095
0.181189 -0.05510021 -1.3285702 7814187
0.18252289 -0.049396276 -1.3326067 8011312
0.1836493 -0.044113405 -1.334172 8208441
0.08064568 -0.52855933 -1.1964872 4072718
0.081249356 -0.52563596 -1.1969624 4335377
0.08336401 -0.51535076 -1.198446 5055518
0.18295562 -0.047918789 -1.3353906 8012847
0.18385684 -0.043692417 -1.3366429 8208704
0.18456346 -0.040819861 -1.339371 8405843
0.18541598 -0.036931932 -1.3409923 8669262
0.18644166 -0.032453075 -1.3437271 8931895
0.18742591 -0.028058372 -1.3459679 8930875
0.08106941 -0.5273996 -1.20035 4991262
0.18695748 -0.03080716 -1.3474995 8996909
0.18762445 -0.027955197 -1.3495177 9062177
0.18844754 -0.024186984 -1.3510253 8734786
0.18941796 -0.019820347 -1.3531013 8667977
0.19031906 -0.015594043 -1.3543537 8470847
0.187823 -0.027852014 -1.3530675 8867139
0.18872416 -0.023625709 -1.3543198 8538699
0.18940002 -0.020455956 -1.3552592 8536648
0.1903013 -0.01622963 -1.3565114 8404545
0.19141865 -0.01126454 -1.3591557 8339015
0.19231111 -0.0073560104 -1.3614872 8470596
0.19251847 -0.0069350302 -1.3639579 8536125
0.19348884 -0.002568379 -1.3660339 8600885
0.19423389 0.0007416904 -1.3677968 8601402
0.19435441 0.00038672239 -1.3716019 8404800
0.19531083 0.0047252998 -1.373513 8405561
0.19645119 0.01003623 -1.3752432 8537135
0.19750255 0.014966972 -1.3767043 8341795
0.19832265 0.018629231 -1.3785716 8142364
0.19899857 0.021798939 -1.3795108 7879723
0.20035034 0.028138429 -1.3813893 8009535
0.19447488 3.1746924e-05 -1.3754069 8536889
0.19537604 0.0042580962 -1.3766593 8537146
0.19650257 0.00954099 -1.3782247 8799536
0.19740373 0.01376728 -1.379477 8537383
0.19833565 0.01769641 -1.3825182 8274722
0.19918811 0.021584354 -1.3841395 8075815
0.20030951 0.026685648 -1.3863214 8272181
0.20139253 0.031811714 -1.3876393 8209202
0.21358913 0.08856982 -1.4063346 6563116
0.21449924 0.093113989 -1.4065082 6892603
0.21540046 0.097340286 -1.4077605 7551804
0.21622354 0.10110849 -1.4092681 8012593
0.21696854 0.10441855 -1.4110309 8274728
0.21786976 0.10864484 -1.4122832 8538675
0.19350243 -0.0067369714 -1.3827858 5777443
0.19418722 -0.0032494441 -1.3826462 6633268
0.19487202 0.00023810565 -1.3825065 7421522
0.19847667 0.017143339 -1.3875158 7881773
0.19915259 0.020313121 -1.3884552 7814456
0.20027906 0.025596015 -1.3900206 8010810
0.20139658 0.030561097 -1.3926649 8011835
0.20236993 0.035033673 -1.3943812 8077872
0.20296478 0.03763935 -1.3959354 8143660
0.20477599 0.046409786 -1.3973612 8340541
0.20537972 0.049333289 -1.3978364 8602422
0.20635307 0.053805873 -1.3995527 7682867
0.20718211 0.057785943 -1.400341 7157813
0.20972359 0.069336742 -1.4053279 6434853
0.21017414 0.071449906 -1.405954 6368806
0.21130061 0.076732785 -1.4075195 6171169
0.21221066 0.081276953 -1.407693 6169117
0.21333706 0.086559847 -1.4092584 6039583
0.21446359 0.0918428 -1.4108237 6435615
0.21536481 0.096069068 -1.412076 7025447
0.21626604 0.10029538 -1.4133285 7614763
0.21716714 0.10452171 -1.4145807 7946020
0.21829653 0.10991055 -1.4157866 8339762
0.21941113 0.1147697 -1.4187905 8340544
0.20068508 0.026120178 -1.3960413 7419911
0.20136094 0.029289879 -1.3969805 7748901
0.20248747 0.034572825 -1.3985459 7946278
0.20474041 0.045138612 -1.4016767 8209731
0.2054162 0.048308358 -1.402616 8275250
0.20631742 0.05253464 -1.4038683 7617579
0.20714045 0.056302845 -1.4053758 7222307
0.20939344 0.066868663 -1.4085068 6434337
0.21014738 0.0704965 -1.4091908 6171686
0.21127391 0.075779438 -1.4107562 5906723
0.21217501 0.080005735 -1.4120085 5642513
0.21321321 0.084929526 -1.4132329 5513228
0.21443689 0.090889305 -1.4140605 6171414
0.21533811 0.095115677 -1.4153129 6629923
0.21646452 0.10039854 -1.4168782 7219238
0.21714044 0.10356826 -1.4178175 7483933
0.21939337 0.1141341 -1.4209484 7946807
0.22006917 0.11730385 -1.4218876 7422279
0.22097051 0.12153018 -1.4231399 7290941
0.22185373 0.12512085 -1.42655 5840431
0.20246071 0.033619434 -1.4017828 7879456
0.20336187 0.037845731 -1.403035 7879469
0.20470476 0.043867394 -1.4059925 7945783
0.20538062 0.047037154 -1.4069316 7814707
0.20628178 0.051263481 -1.4081841 7485232
0.20718288 0.055489749 -1.4094362 7221284
0.20784992 0.058341712 -1.4114544 6956812
0.20921063 0.064998999 -1.4122541 6497834
0.21041507 0.070740014 -1.4135642 6036528
0.21123821 0.074508235 -1.4150717 5574960
0.21213937 0.078734532 -1.4163243 4919056
0.20557916 0.04714036 -1.4104815 7879725
0.20632416 0.050450385 -1.4122443 7747369
0.20692194 0.053162009 -1.4134388 7681833
0.20963442 0.066158712 -1.4161168 6889520
0.21053553 0.070385069 -1.4173692 6625597
0.21120256 0.073237032 -1.4193875 6757682
0.21198225 0.076617211 -1.4215622 7219736
0.17379355 -0.12345624 -1.4514307 4064257
0.17375791 -0.12472745 -1.4557464 3671553
0.17419958 -0.12293208 -1.4574515 3343364
0.17847121 -0.10317487 -1.4644789 3738119
0.17938131 -0.098630749 -1.4646524 3999243
0.18028247 -0.094404414 -1.4659046 3999750
0.18126166 -0.089719936 -1.4669018 4065546
0.18252647 -0.084156431 -1.4701144 4327182
0.18591487 -0.067989916 -1.4737316 4523265
0.18659067 -0.0648202 -1.474671 4524289
0.18749189 -0.060593851 -1.4759234 4524297
0.18840188 -0.056049742 -1.4760967 4787986
0.18906003 -0.053515643 -1.4791939 4525841
0.19131303 -0.042949803 -1.4823248 4589315
0.19334066 -0.03344062 -1.4851425 4132097
0.19401646 -0.030270867 -1.4860817 4327937
0.19964886 -0.0038563684 -1.4939088 4524037
0.20055002 0.00036997348 -1.4951612 4197403
0.17356014 -0.12712675 -1.4612918 3998485
0.17438924 -0.12314668 -1.4620801 3605000
0.17528152 -0.1192382 -1.4644113 3605505
0.17595732 -0.11606842 -1.4653506 3737857
0.17753446 -0.1086724 -1.4675422 3868162
0.17845339 -0.10381045 -1.4666368 3607302
0.17935461 -0.099584162 -1.4678891 3803145
0.18138224 -0.090074912 -1.4707068 4000266
0.1822834 -0.085848622 -1.4719591 4196359
0.18587911 -0.069261126 -1.4780474 4129281
0.18655509 -0.066091411 -1.4789866 4523009
0.187231 -0.062921636 -1.4799258 4457729
0.19129515 -0.043585427 -1.4844824 4457986
0.19332278 -0.034076236 -1.4873003 4525064
0.19444036 -0.029111102 -1.4899446 4589832
0.19555789 -0.02414602 -1.492589 4458503
0.19645911 -0.019919708 -1.4938413 4327426
0.19744122 -0.015129343 -1.4944787 4721157
0.19827038 -0.01114925 -1.495267 4459011
0.19939673 -0.0058663487 -1.4968324 4458499
0.20052332 -0.00058348477 -1.4983978 4197383
0.20142448 0.0036428645 -1.4996502 4721155
0.20232558 0.0078691617 -1.5009025 4589827
0.20344913 0.013046175 -1.5028275 4852745
0.20457852 0.018434994 -1.5040333 4131585
0.20547974 0.022661291 -1.5052857 4261891
0.2063809 0.026887648 -1.506538 4130312
0.20720398 0.030655853 -1.5080457 4196354
0.21155369 0.050871164 -1.514818 4392458
0.21245492 0.055097461 -1.5160702 4460291
0.21335614 0.059323817 -1.5173227 4657665
0.23340726 0.1533594 -1.545187 7420426
0.2343173 0.15790349 -1.5453604 8139297
0.23544371 0.16318646 -1.5469259 9658686
0.23634499 0.1674127 -1.5481782 11765608
0.17141581 -0.13847125 -1.4634045 4523778
0.17232573 -0.13392714 -1.463578 4523521
0.17338026 -0.12889047 -1.4646795 4260872
0.17436242 -0.1241001 -1.4653168 3604741
0.1750384 -0.1209304 -1.466256 3539713
0.17684078 -0.11247773 -1.4687607 4457217
0.18652833 -0.067044809 -1.4822233 4654608
0.19937015 -0.0068197623 -1.5000693 4460805
0.20049655 -0.0015368313 -1.5016346 4786945
0.20117241 0.0016328692 -1.5025738 5179909
0.20703006 0.029103957 -1.5107141 4719873
0.21153593 0.050235569 -1.5169756 4195590
0.21228099 0.053545624 -1.5187387 4262658
0.21356356 0.05974479 -1.5197934 4591106
0.23156929 0.14363554 -1.546998 6893607
0.23271352 0.14955404 -1.5464056 7222546
0.23451591 0.1580067 -1.5489103 8405794
0.23586768 0.16434616 -1.5507888 11895150
0.23631823 0.16645932 -1.551415 11960424
0.16867661 -0.15242147 -1.4639632 4788481
0.16935253 -0.1492517 -1.4649024 4918273
0.17019057 -0.14495379 -1.4646119 4918532
0.17117274 -0.14016342 -1.4652493 4722449
0.22936761 0.13257445 -1.5468485 6038802
0.23050439 0.1377583 -1.5490103 6499607
0.16751456 -0.15897554 -1.4667134 4720641
0.16843355 -0.15411358 -1.4658079 4787713
0.16227937 -0.18518367 -1.465986 3673347
0.16318941 -0.18063955 -1.4661593 4000772
0.16432488 -0.17503889 -1.4666458 4001544
0.16545135 -0.16975594 -1.4682113 4328449
0.16612715 -0.16658622 -1.4691504 4327937
0.16682082 -0.16278085 -1.467932 4392961
0.15683663 -0.21181276 -1.4627875 4196615
0.15796316 -0.20652989 -1.464353 4130565
0.15931487 -0.20019041 -1.4662315 4525060
0.16022491 -0.19564632 -1.4664049 4327681
0.16112614 -0.19141996 -1.4676571 4524802
0.16180205 -0.18825026 -1.4685965 4656131
0.15613407 -0.21593592 -1.465085 4523779
0.15704417 -0.21139184 -1.4652585 4458243
0.15771997 -0.20822211 -1.4661977 4524036
0.15929711 -0.20082599 -1.4683893 4986373
0.16109943 -0.19237337 -1.470894 5185027
0.16177523 -0.18920366 -1.4718332 5447427
0.15436816 -0.22541347 -1.46736 5053445
0.15526938 -0.22118717 -1.4686123 5251586
0.15588206 -0.2179459 -1.4680086 5053193
0.15404403 -0.22766975 -1.4698197 5450500
0.13835526 -0.20589179 -1.2337644 5314826
0.13926256 -0.20163687 -1.2350254 5381895
0.139943 -0.19844568 -1.2359709 5381130
0.1409682 -0.19349886 -1.2368463 5448477
0.14348119 -0.18808313 -1.2383965 5840926
0.1431185 -0.18355334 -1.2403837 5972250
0.14402574 -0.17929842 -1.2416446 6235420
0.14493304 -0.17504346 -1.2429055 6695477
0.1328578 -0.23334119 -1.2327169 4590593
0.1340009 -0.22770256 -1.2332067 4788225
0.13469028 -0.22419143 -1.2330661 4854020
0.13604522 -0.21802232 -1.2356815 5115914
0.13718534 -0.21249032 -1.2365334 5247507
0.14112532 -0.20816863 -1.2369434 5445903
0.14203036 -0.20392439 -1.238201 5643792
0.14386946 -0.20001794 -1.2390709 5447948
0.14485508 -0.19521138 -1.2397106 5513523
0.14598525 -0.18991056 -1.2412813 5841198
0.14509916 -0.18472043 -1.2437867 6105370
0.14600492 -0.1804726 -1.2450454 6302502
0.14691067 -0.1762248 -1.246304 6499650
0.14737552 -0.17083704 -1.2478321 6827303
0.1470958 -0.16582716 -1.2495732 7154967
0.14808166 -0.161111 -1.250577 6893066
0.14875305 -0.15823975 -1.2526088 7090214
0.14987826 -0.15324098 -1.255271 6696479
0.15054977 -0.15036973 -1.2573029 6827530
0.13293684 -0.2386142 -1.2347943 4459549
0.1369763 -0.23393369 -1.2357695 4787461
0.13802868 -0.2286105 -1.2356991 4853761
0.13894182 -0.224051 -1.235873 4919299
0.14007211 -0.21875022 -1.2374438 5050637
0.14075029 -0.21556973 -1.2383862 5182994
0.14188051 -0.21026891 -1.2399569 5316107
0.14301085 -0.20496814 -1.2415276 5384473
0.14866221 -0.1784642 -1.2493812 6499115
0.14986187 -0.17302257 -1.2517784 6761258
0.15090716 -0.16842067 -1.2544171 7023653
0.1519717 -0.16312777 -1.2547103 7024412
0.15298831 -0.15861933 -1.2571449 7286331
0.15384364 -0.15471831 -1.2587717 6827303
0.15230644 -0.14937782 -1.2612703 6957846
0.15203196 -0.14434464 -1.2630248 6957352
0.15300888 -0.13994846 -1.265115 6957879
0.15391612 -0.13569355 -1.2663758 6826305
0.15459657 -0.13250227 -1.2673215 6958127
0.15573072 -0.12718362 -1.2688975 6892849
0.13217813 -0.24497789 -1.2380533 4590349
0.13549733 -0.24186662 -1.2376562 4656659
0.15492928 -0.15101193 -1.2657552 7089196
0.15516949 -0.14667919 -1.2669759 7024180
0.15696383 -0.14147046 -1.2685825 6957864
0.1558786 -0.13694111 -1.2697349 6629415
0.15579069 -0.13254496 -1.2709448 6891807
0.15659279 -0.1271798 -1.2725036 7089450
0.15698612 -0.12222227 -1.2743044 7548211
0.15773618 -0.11888984 -1.2760792 7221546
0.097837806 -0.40035626 -1.1950376 4134939
0.099861264 -0.39142251 -1.2000468 4135707
0.10284686 -0.38703623 -1.2015244 4136200
0.10376191 -0.38246673 -1.2016973 4400653
0.1046592 -0.37853703 -1.2040427 4531495
0.11203992 -0.33412197 -1.2162386 3608339
0.11324358 -0.32866204 -1.2186439 3871795
0.11496115 -0.32513705 -1.2185962 3543851
0.11689544 -0.32087374 -1.2199485 3279134
0.11780125 -0.31662595 -1.2212073 2561063
0.11931235 -0.31283671 -1.2227829 4335655
0.11983091 -0.30738479 -1.2251265 5653022
0.11868733 -0.30313236 -1.2262088 5974302
0.12481141 -0.27441144 -1.2347193 3674889
0.12775517 -0.27022195 -1.2361386 3540483
0.13069654 -0.26604325 -1.2375546 3541769
0.1318357 -0.26042357 -1.2380428 3869191
0.1327489 -0.25586402 -1.2382166 4196878
0.15579957 -0.147983 -1.2711256 7023642
0.15716302 -0.14136696 -1.2721443 7088666
0.15775979 -0.13875245 -1.2737038 6499347
0.15874541 -0.13394585 -1.2743433 6630672
0.15995896 -0.12847611 -1.2769057 6959133
0.16000521 -0.12350643 -1.2785228 7156248
0.16091025 -0.1192622 -1.2797805 7090707
0.15876478 -0.11499221 -1.2811708 7221515
0.15996844 -0.10953224 -1.283576 7288344
0.16110265 -0.10421357 -1.285152 7485479
0.16209149 -0.099390745 -1.2857938 7157285
0.16292614 -0.095383719 -1.2865875 7746589
0.16382444 -0.091448709 -1.2889345 7548170
0.16473174 -0.08719378 -1.2901953 7616047
0.10014313 -0.41044015 -1.1994754 2562103
0.10082126 -0.40725964 -1.2004178 3614003
0.097801924 -0.40163606 -1.1993823 4794142
0.098936081 -0.39631739 -1.2009584 5052190
0.10192335 -0.39192283 -1.2024345 4072475
0.10468209 -0.38859919 -1.2035931 3941405
0.10694271 -0.37799761 -1.2067345 4134189
0.10508227 -0.37390256 -1.2077162 4596775
0.10551381 -0.36546901 -1.2100993 4857373
0.1068747 -0.35908657 -1.2119906 5123635
0.10755521 -0.35589534 -1.2129363 5781540
0.10914296 -0.34844923 -1.2151427 5257248
0.11372435 -0.3461929 -1.2161589 5255716
0.11141121 -0.33781183 -1.2182947 4659747
0.11779332 -0.32711005 -1.2218134 4004644
0.12276655 -0.30378652 -1.2287246 6044977
0.12260211 -0.29833305 -1.2310095 5318972
0.12274659 -0.29454258 -1.2324671 5253165
0.12387967 -0.28922918 -1.2340415 4006952
0.1247853 -0.28498143 -1.2353001 5124110
0.12652445 -0.27993783 -1.2364602 5847572
0.12887013 -0.27516228 -1.2372065 3941646
0.12969297 -0.27148759 -1.2390802 3671066
0.16029203 -0.12780027 -1.2808726 6895126
0.16097021 -0.12461978 -1.2818151 7090187
0.16187441 -0.12037914 -1.2830716 7090192
0.1617794 -0.11629459 -1.285372 7156760
0.16143632 -0.11111756 -1.2865491 7157024
0.16251993 -0.10614677 -1.2884943 7418675
0.16395879 -0.10126626 -1.2897383 7419453
0.16585177 -0.097195625 -1.2910315 7615268
0.16675651 -0.092953205 -1.2922885 7417625
0.16799664 -0.088043146 -1.2935255 7550507
0.16681945 -0.083182245 -1.2956026 7682352
0.16696405 -0.077836193 -1.2976923 7879212
0.078754842 -0.50279689 -1.1790128 2032919
0.16364717 -0.1131734 -1.289915 6762790
0.16455132 -0.10893279 -1.2911716 7154987
0.16997671 -0.083488978 -1.2987111 7618360
0.16890454 -0.079181127 -1.3009987 7878692
0.17014575 -0.075670905 -1.3037214 7943759
0.16971612 -0.07112433 -1.3056653 8076361
0.16986775 -0.065607399 -1.3072209 8012589
0.17099285 -0.060608685 -1.3098832 8274227
0.074558735 -0.51397669 -1.1802661 3606811
0.079482496 -0.51010334 -1.1817138 2032667
0.080612719 -0.50480247 -1.1832845 1377559
0.17263567 -0.072680332 -1.3089761 8206143
0.17289376 -0.066804066 -1.311229 7879973
0.17390728 -0.062189206 -1.313185 7946031
0.17186439 -0.057633564 -1.3154891 7879466
0.072481334 -0.52483016 -1.1817741 3812115
0.07475853 -0.51387286 -1.1838399 1247525
0.075439095 -0.51068157 -1.1847856 1443601
0.080585957 -0.50575918 -1.1865323 1705737
0.1757558 -0.059432492 -1.3187871 7747882
0.1737237 -0.054550648 -1.3200166 7748404
0.17364299 -0.050403491 -1.3223554 7816243
0.17455029 -0.046148524 -1.3236163 7947803
0.072533071 -0.52532876 -1.1847758 2889993
0.073475122 -0.52100319 -1.1864512 1837079
0.075557709 -0.51603919 -1.1879891 1443862
0.07752502 -0.51161605 -1.1893668 1706249
0.080638885 -0.50667435 -1.1912045 2361608
0.17572898 -0.060389146 -1.3220347 7617070
0.17663324 -0.056148499 -1.3232913 7748158
0.17557234 -0.051794499 -1.3256204 7815227
0.17670453 -0.046484746 -1.3271937 7946286
0.17686069 -0.040949605 -1.3287668 8210233
0.17678261 -0.036790997 -1.3311131 8473151
0.075226247 -0.52774179 -1.1898682 2556943
0.074733496 -0.5228942 -1.1918826 2819849
0.077418387 -0.51802748 -1.1922482 2556433
0.079384089 -0.51361102 -1.193622 2360341
0.08007133 -0.51011157 -1.1934818 2755602
0.1777277 -0.052123219 -1.3291922 7813930
0.17863184 -0.047882542 -1.3304489 8010541
0.17976224 -0.042581804 -1.3320196 8208439
0.18065751 -0.038660049 -1.3343587 8406599
0.18058729 -0.034187369 -1.335619 8734785
0.18051815 -0.029709354 -1.3368808 8932653
0.17970431 -0.023922235 -1.3384695 8538933
0.18082052 -0.019243486 -1.3422179 8601412
0.18171877 -0.015308484 -1.3445649 8406085
0.18239921 -0.012117274 -1.3455106 8209221
0.07687068 -0.52622926 -1.193414 3215361
0.07759428 -0.52375841 -1.1980698 4728613
0.078326702 -0.51981664 -1.1970799 4463639
0.079131246 -0.51562774 -1.1965556 4000027
0.18277371 -0.029704645 -1.3411319 8866843
0.18382639 -0.025072649 -1.3437994 8799544
0.18463302 -0.021511175 -1.3457962 8667718
0.18169188 -0.016268373 -1.3478236 8537148
0.18259913 -0.012013406 -1.3490844 8405559
0.18350649 -0.0077584311 -1.3503453 8338476
0.18464041 -0.0024397299 -1.3519213 8404532
0.077495217 -0.52496219 -1.2008519 4991293
0.078173459 -0.52178162 -1.2017944 5189950
0.18487215 -0.021386929 -1.3500705 8734788
0.18555033 -0.018206492 -1.3510129 8865089
0.18645453 -0.013965853 -1.3522695 8536633
0.18757582 -0.0089839101 -1.3549227 8207946
0.18870616 -0.0036831349 -1.3564935 8404551
0.18767464 0.0010788143 -1.3577944 8338492
0.18663704 0.0055340901 -1.3601893 8338744
0.19276124 0.034254968 -1.3686998 7879714
0.1887486 -0.004498899 -1.3605676 8469826
0.1895746 -0.00071804225 -1.3620802 8468275
0.18854451 0.0040489584 -1.3633906 8404019
0.19001597 0.0076580867 -1.3648865 8207664
0.18993032 0.013469413 -1.3673302 8142372
0.18977666 0.019146599 -1.3689469 7683865
0.19068396 0.023401521 -1.3702078 7224864
0.1915912 0.027656488 -1.3714687 7420706
0.19418061 0.032345355 -1.3719918 7748127
0.19527191 0.037573516 -1.3730686 8209193
0.19861686 0.041688293 -1.3746461 8406851
0.19856185 0.046228245 -1.3759422 8605000
0.19659019 0.051378667 -1.3773168 8867119
0.19726169 0.054249883 -1.3793486 8669999
0.19067806 0.0036261454 -1.3668987 8536377
0.19134724 0.0064877421 -1.3689237 8404539
0.19183421 0.011969812 -1.3705165 8405553
0.19264323 0.017363057 -1.3720992 8011560
0.19258463 0.021886393 -1.3733923 7748908
0.19541627 0.025570579 -1.3745782 7617072
0.19654655 0.030871354 -1.3761489 7813172
0.1976769 0.036172211 -1.3777198 8142903
0.1985811 0.040412828 -1.3789763 8209990
0.19948536 0.044653475 -1.3802329 8276042
0.199431 0.049196392 -1.381532 8801588
0.19841975 0.054050177 -1.3828778 8538422
0.205845 0.093392044 -1.3956714 8139523
0.20652539 0.096583307 -1.3966169 8339727
0.20720589 0.09977448 -1.3975625 8668969
0.19245076 0.010831885 -1.3737421 8405554
0.19335502 0.015072517 -1.3749988 8341545
0.19448519 0.020373337 -1.3765694 8009510
0.19545877 0.024754815 -1.3786523 7551286
0.1965127 0.029659666 -1.3802629 7877950
0.19764107 0.034896642 -1.3820499 8209186
0.19854534 0.039137304 -1.3833065 8013371
0.19944954 0.043377921 -1.3845631 7752018
0.20035374 0.047618553 -1.3858197 8539195
0.201258 0.0518592 -1.3870764 8473645
0.19862074 0.058559477 -1.3893989 7945780
0.19959736 0.062610209 -1.392849 7485998
0.20172632 0.072965026 -1.3943425 7485235
0.20235789 0.075815514 -1.3956597 7419184
0.20353782 0.081368297 -1.3972263 7353145
0.2046054 0.086652339 -1.3976111 7550005
0.20844471 0.090360165 -1.3984416 7746841
0.21052635 0.095325679 -1.3999562 8010796
0.20904636 0.10108399 -1.4019424 8275012
0.2094841 0.10468987 -1.403194 8538427
0.20964706 0.10955587 -1.4075471 8736305
0.19648403 0.028639227 -1.383727 8140857
0.19784033 0.035000205 -1.3856118 8407329
0.19850063 0.037542939 -1.3887193 8341046
0.1994049 0.041783571 -1.3899759 8340287
0.20030916 0.046024144 -1.3912326 8471100
0.20143932 0.051324964 -1.3928032 8273973
0.20252091 0.056286171 -1.3947442 7748916
0.20250905 0.06085971 -1.3967685 7289136
0.2015031 0.06573309 -1.39814 7222069
0.20336407 0.069665641 -1.3993405 7089456
0.20576763 0.074543655 -1.4008355 6827313
0.2075845 0.080033749 -1.4017811 6827315
0.20844716 0.084189892 -1.4025418 6826798
0.20930976 0.088346004 -1.4033026 6892072
0.21038204 0.093679547 -1.4035882 7220537
0.21162981 0.099669874 -1.4047745 7880515
0.21252513 0.10359161 -1.4071138 8275507
0.21348965 0.1076542 -1.4102793 8538670
0.21439391 0.11189482 -1.411536 8669754
0.21261811 0.11616957 -1.4134905 8734792
0.21233302 0.12104094 -1.4156744 8865104
0.19823885 0.035207242 -1.3927355 8209726
0.19943839 0.040648848 -1.3951325 8209197
0.20026439 0.044429779 -1.3966453 8274495
0.20183784 0.051532 -1.3999269 9126195
0.2036463 0.060013264 -1.4024401 7157545
0.20433342 0.063512653 -1.4023 6894644
0.20523763 0.067753285 -1.4035565 6696746
0.20648533 0.073743537 -1.4047431 6434087
0.20750719 0.07867375 -1.4056154 6368803
0.21541905 0.11577934 -1.4166105 8471108
0.21465015 0.12148535 -1.4194118 8406348
0.21373963 0.1267114 -1.4212916 8472389
0.19819415 0.033612818 -1.3981483 7880490
0.19932443 0.038913667 -1.399719 8011819
0.20022857 0.043154225 -1.4009756 8143689
0.20362842 0.05937551 -1.4046053 7156500
0.20429766 0.062237114 -1.4066302 6828042
0.20528013 0.066937461 -1.4076306 6565146
0.20678425 0.073898882 -1.4100858 6039593
0.21764398 0.12510532 -1.4240822 7093546
0.21642542 0.12870151 -1.4262662 6631475
0.2154367 0.13337357 -1.428777 7091753
0.19907147 0.036896855 -1.4026525 7879462
0.20020175 0.04219763 -1.4042233 7945789
0.2043401 0.06142135 -1.4107044 6827035
0.20539218 0.066262364 -1.4125311 6563626
0.20628744 0.070184171 -1.4148703 6234929
0.21564555 0.13379738 -1.4312646 7487246
0.20342147 0.055497229 -1.415815 7879207
0.2042172 0.059367225 -1.4163733 7812651
0.20448506 0.063817173 -1.4176803 7482672
0.20515627 0.069088325 -1.4199065 7483168
0.20736408 0.073571712 -1.4229363 7550239
0.18157434 -0.068978406 -1.472506 4195585
0.18534791 -0.051096469 -1.4770203 4591109
0.18654752 -0.045654856 -1.4794173 4459279
0.17451298 -0.10375658 -1.4692632 3736325
0.17541718 -0.099515945 -1.4705197 3999236
0.17633033 -0.094956428 -1.4706936 3934724
0.17745161 -0.089974493 -1.4733471 4000007
0.17866319 -0.084107734 -1.4743007 4196101
0.17950404 -0.079795338 -1.4740092 4588804
0.1804083 -0.075554729 -1.4752657 4392450
0.18131256 -0.071314082 -1.4765223 4457985
0.18379021 -0.059971206 -1.4810604 4261383
0.18446839 -0.056790717 -1.482003 4525325
0.18542314 -0.052146718 -1.4826727 4328456
0.18651187 -0.04693041 -1.4837476 4392962
0.1877507 -0.041258961 -1.4860168 4457985
0.18854642 -0.037389003 -1.486575 4327681
0.18943262 -0.033786148 -1.4899966 4523792
0.1901108 -0.030605644 -1.4909391 4719631
0.19738036 0.0045949519 -1.4966614 4591379
0.19915307 0.011800684 -1.5035048 4917506
0.20369214 0.033641636 -1.5076225 4262405
0.20436132 0.036503166 -1.5096476 3934211
0.2054916 0.041804016 -1.5112182 4260614
0.20654356 0.046645164 -1.5130452 4325645
0.20729113 0.049966395 -1.514814 4391693
0.16973001 -0.12729535 -1.4669962 4129793
0.17040813 -0.12411495 -1.4679387 3801345
0.17139357 -0.11930829 -1.4685782 3671041
0.17078733 -0.11448272 -1.4699633 3867905
0.17358184 -0.10895379 -1.4712542 3933441
0.17252481 -0.10437058 -1.4727523 3934210
0.1734305 -0.10012285 -1.4740111 4130305
0.17237794 -0.095517047 -1.4755119 4065545
0.17742485 -0.090931132 -1.4765946 4065809
0.17757815 -0.085442036 -1.4782913 3934209
0.17945933 -0.081389725 -1.479422 4261121
0.1803636 -0.077149071 -1.4806786 4588823
0.18149388 -0.071848318 -1.4822494 4261387
0.18261516 -0.066866361 -1.4849025 4523807
0.18352836 -0.062306896 -1.4850764 4326913
0.18443263 -0.058066241 -1.4863331 4459274
0.18339378 -0.053397126 -1.4878567 4328985
0.1851728 -0.048234351 -1.4893399 4263169
0.18565822 -0.042777665 -1.4910035 4393217
0.18753272 -0.038757518 -1.4921248 4262145
0.1894058 -0.034742743 -1.4932443 4458246
0.18934262 -0.030269094 -1.4946401 4588805
0.1914404 -0.025201313 -1.4960716 4459010
0.19257069 -0.019900538 -1.4976424 4065793
0.19347489 -0.015659913 -1.4988989 4590082
0.19437915 -0.011419259 -1.5001554 4590085
0.1955049 -0.0062778965 -1.5022675 4263687
0.19663072 -0.0011365563 -1.5043795 4655617
0.19761622 0.0036700666 -1.5050192 4721163
0.19844812 0.0076635927 -1.5058101 4262661
0.19935232 0.011904255 -1.5070667 4655873
0.19984317 0.017386645 -1.5087378 4459777
0.20161295 0.02250579 -1.5102081 4327169
0.20251715 0.02674643 -1.5114646 4785410
0.20349371 0.031234205 -1.5131868 4393217
0.20432556 0.035227716 -1.5139779 4327681
0.2054559 0.040528476 -1.5155487 4195603
0.20658618 0.045829266 -1.5171193 4129299
0.20741194 0.049610257 -1.5186319 4064519
0.20861173 0.055051833 -1.5210291 4131841
0.20951581 0.059292495 -1.5222857 4328193
0.20661879 0.064787284 -1.5241941 4590085
0.2070725 0.066914752 -1.5248245 4656135
0.22850478 0.14834577 -1.5486739 6893862
0.22817457 0.1535275 -1.5487332 7026699
0.22798085 0.15879488 -1.5511721 9000215
0.23051971 0.16284251 -1.5518626 11107662
0.16652942 -0.14341311 -1.4669286 5049366
0.16611874 -0.13898012 -1.4683409 4722710
0.16843903 -0.13412511 -1.4682682 4786177
0.1665225 -0.12885915 -1.4702841 4261640
0.16644478 -0.12445399 -1.4716614 3932931
0.16736114 -0.1198791 -1.4718361 3736833
0.16849518 -0.11456045 -1.473412 3540995
0.16962922 -0.10924175 -1.4749882 3738369
0.17076337 -0.10392306 -1.4765642 4197633
0.17167056 -0.09966816 -1.4778248 4131841
0.17257786 -0.095413178 -1.4790858 4197131
0.17348522 -0.091158263 -1.4803467 4197387
0.1784752 -0.067756012 -1.4872811 4392979
0.17938244 -0.063501105 -1.4885418 4458243
0.1805166 -0.058182359 -1.4901179 4786697
0.182558 -0.048608772 -1.4929547 4328961
0.18301159 -0.046481259 -1.4935852 4262913
0.1845994 -0.039035134 -1.4957917 3868930
0.18550658 -0.03478016 -1.4970524 4392451
0.18737215 -0.031079449 -1.499258 4394245
0.18818325 -0.025685035 -1.5008806 4132100
0.19060397 -0.020692468 -1.5022639 3673350
0.19054484 -0.016199619 -1.5036671 4263686
0.19337928 -0.012446754 -1.5046332 4459266
0.19547361 -0.0073939636 -1.5060564 4132610
0.19564211 -0.0018344149 -1.5077778 4591617
0.19487238 0.0025983378 -1.5088197 4853765
0.19449782 0.0072014183 -1.5102797 4788482
0.19540513 0.0114564 -1.5115407 4657409
0.19638503 0.015959248 -1.5132685 4395521
0.19879621 0.020907119 -1.5146387 4197377
0.20152414 0.025751241 -1.515952 4655873
0.20338559 0.029711515 -1.5170515 4328449
0.20428979 0.033952162 -1.518308 4328449
0.20542008 0.039252937 -1.5198789 3934474
0.20655036 0.044553772 -1.5214496 4130578
0.20745462 0.048794419 -1.5227063 4065798
0.20835888 0.053035051 -1.5239627 4196865
0.20822096 0.058748066 -1.5257529 4262913
0.2065919 0.063827395 -1.5274527 4524290
0.20704556 0.065954834 -1.5280832 4655875
0.20958167 0.073079139 -1.5301222 4788226
0.21072602 0.076763138 -1.5315834 4854017
0.21965277 0.10572407 -1.5407525 4854019
0.22055697 0.1099647 -1.542009 5050382
0.22123516 0.1131452 -1.5429515 5051671
0.22470725 0.12961356 -1.5470467 5841419
0.22530413 0.13222799 -1.548606 6103054
0.22757363 0.14314845 -1.5506649 6761760
0.22638154 0.14709757 -1.5519811 7091472
0.22677886 0.15849993 -1.5555059 11239748
0.22746831 0.16201121 -1.5553653 11635545
0.16050267 -0.15371096 -1.4688972 4656641
0.16538125 -0.14935172 -1.467523 4853249
0.16431063 -0.14483434 -1.4690136 5114887
0.18978024 -0.015848987 -1.5073861 4983811
0.1904608 -0.012657776 -1.5083318 4524801
0.19143766 -0.0082615763 -1.5104219 4395011
0.19219375 -0.0047158003 -1.5114725 4395526
0.19760108 0.020689934 -1.5188038 4328711
0.19957417 0.025035277 -1.5206059 4656147
0.20334983 0.028436042 -1.5213819 4263169
0.20234299 0.033251166 -1.5229646 4131841
0.20376801 0.038082451 -1.5241295 4328198
0.20332521 0.04352513 -1.5263362 4459275
0.20551312 0.048118412 -1.52737 4589826
0.20641875 0.052366197 -1.5286286 4589314
0.20632029 0.057683051 -1.5300591 4655635
0.20640182 0.061731756 -1.5319496 4722439
0.20701855 0.064994991 -1.5313418 4656644
0.20859742 0.072121203 -1.5346344 5050370
0.20950472 0.07637614 -1.5358953 5114882
0.21033335 0.080169916 -1.537413 5115922
0.21108341 0.083502352 -1.5391878 5246021
0.21563774 0.10541697 -1.5433196 4723202
0.21654499 0.10967192 -1.5445803 4722184
0.21767914 0.11499061 -1.5461564 5182733
0.22183156 0.13427919 -1.5526593 6367261
0.22640765 0.1365722 -1.5534245 6695447
0.22450376 0.1419497 -1.5552498 7415844
0.15965831 -0.17840661 -1.4683298 3935235
0.16056252 -0.17416605 -1.4695864 4066566
0.16101468 -0.17204569 -1.4702146 4525062
0.16180682 -0.159927 -1.470641 4525313
0.16025794 -0.15541457 -1.4707545 4524801
0.19927078 0.027548119 -1.5249698 4460033
0.2015391 0.038185477 -1.5281217 4131847
0.20607543 0.059460223 -1.5344257 4919309
0.21741652 0.11264706 -1.5501862 5643268
0.22195286 0.13392186 -1.5564902 5973013
0.2226333 0.13711306 -1.5574358 6825776
0.2235316 0.14104798 -1.5597827 10057311
0.22421211 0.14423925 -1.5607284 11043422
0.15464938 -0.20300561 -1.4657489 4458500
0.15645772 -0.19452441 -1.4682621 4393474
0.15750724 -0.1845593 -1.4701258 4722690
0.15544981 -0.17935282 -1.4695662 4394242
0.15635705 -0.1750979 -1.470827 4131587
0.15750015 -0.16945925 -1.4713168 4525062
0.15818053 -0.16626805 -1.4722624 4524546
0.15235293 -0.21488276 -1.4669377 4719625
0.15303111 -0.21170232 -1.4678802 4786187
0.15266317 -0.2055818 -1.4688975 4917508
0.1552918 -0.20110068 -1.4710217 5383427
0.15620488 -0.19654119 -1.4711956 5250821
0.15710014 -0.19261943 -1.4735347 5712157
0.158328 -0.18663949 -1.4743651 5842698
0.15959573 -0.18063879 -1.4759077 6105602
0.15083998 -0.21654907 -1.4704952 5315598
0.15056765 -0.21138088 -1.4717607 5643539
0.15015221 -0.2066984 -1.4720924 5580033
0.15128624 -0.20137973 -1.4736685 5712385
0.15343988 -0.19781815 -1.475386 5974796
0.15685624 -0.19431733 -1.4753858 5908798
0.13504291 -0.20106214 -1.2300286 5249282
0.13618088 -0.19572559 -1.2316098 5121044
0.13731873 -0.19038895 -1.2331911 5773840
0.13822913 -0.18611968 -1.2344563 5774353
0.13936698 -0.18078314 -1.2360376 5972748
0.14004982 -0.17758119 -1.2369864 6037259
0.1409601 -0.17331195 -1.2382514 6365728
0.13020968 -0.22540198 -1.2299261 4592388
0.13112003 -0.22113271 -1.2311913 4853764
0.13233984 -0.21522632 -1.2321515 5050630
0.13317728 -0.21120584 -1.2329477 5182479
0.13403273 -0.20654324 -1.2315643 5184006
0.13494307 -0.20227401 -1.2328293 5315331
0.13593525 -0.19743493 -1.2334733 5187593
0.13730073 -0.19103104 -1.2353709 5644307
0.1384387 -0.18569446 -1.2369523 5840665
0.13912141 -0.18249249 -1.237901 5906707
0.14003175 -0.17822325 -1.239166 6169608
0.14127898 -0.17251359 -1.2414504 6629668
0.14221972 -0.16833392 -1.2436764 6827312
0.14319992 -0.16392292 -1.2457736 6827801
0.1441102 -0.15965366 -1.2470386 6762762
0.14500254 -0.15602647 -1.2504834 6893086
0.14605665 -0.15085998 -1.2510663 6695973
0.14705086 -0.14642064 -1.2533298 6564633
0.12744272 -0.23949385 -1.2304904 4002306
0.12820733 -0.23572214 -1.230818 4328706
0.12905377 -0.23138057 -1.2305247 4590593
0.12973654 -0.22817867 -1.2314734 4722433
0.1313296 -0.22070746 -1.2336872 4984324
0.14521217 -0.1556012 -1.2529794 6828349
0.14635003 -0.15026465 -1.2545607 6630678
0.14725137 -0.14631636 -1.2569157 6499593
0.14808285 -0.14250991 -1.2584386 6761491
0.093041658 -0.40194261 -1.187094 4989994
0.12649632 -0.24504727 -1.2335849 4393481
0.12711525 -0.24177304 -1.2329751 4328716
0.14836228 -0.1419429 -1.2617666 7022883
0.14904505 -0.13874099 -1.2627153 7023400
0.14972782 -0.13553903 -1.2636641 7023140
0.15108871 -0.12929565 -1.2661067 7024177
0.15230107 -0.12365677 -1.2679752 6892851
0.1531235 -0.12017129 -1.2705879 7352140
0.1540339 -0.11590207 -1.2718531 7089994
0.15494418 -0.11163282 -1.273118 7090772
0.15608215 -0.10629624 -1.2746993 7615811
0.15744758 -0.099892393 -1.276597 7748146
0.092331886 -0.40610772 -1.1894147 4660525
0.093014657 -0.40290573 -1.1903635 4661794
0.093915999 -0.39895755 -1.1927185 4596778
0.09459877 -0.39575559 -1.1936672 4662835
0.10734332 -0.3359859 -1.2113781 3020339
