# .PCD v0.7 - Point Cloud Data file format
VERSION 0.7
FIELDS x y z rgba
SIZE 4 4 4 4
TYPE F F F U
COUNT 1 1 1 1
WIDTH 1112
HEIGHT 1
VIEWPOINT 0 0 0 1 0 0 0
POINTS 1112
DATA ascii
-0.12823844 -0.39452887 -1.1641998 1706242
-0.12982881 -0.39033091 -1.1653574 2361350
-0.13197899 -0.38478407 -1.1666421 2427412
-0.13168681 -0.38017076 -1.1698036 2426900
-0.13202178 -0.37481797 -1.1714327 2557705
-0.13549113 -0.36482653 -1.1757679 2100737
-0.13652444 -0.36196983 -1.1768007 1967365
-0.13790214 -0.35816088 -1.1781778 2033421
-0.11536336 -0.42287058 -1.1504456 2298627
-0.11769831 -0.41761228 -1.1501789 2166273
-0.12010837 -0.41416317 -1.1511534 2232321
-0.12077272 -0.40951133 -1.1523852 2034947
-0.12342227 -0.40520048 -1.1540327 2164748
-0.12490821 -0.40038854 -1.1556599 1902087
-0.1269877 -0.39675099 -1.1573129 2491652
-0.12710488 -0.39208406 -1.1585417 1902851
-0.12841308 -0.38738942 -1.1621902 2296328
-0.13009727 -0.38333195 -1.1625733 1902093
-0.1305176 -0.38097242 -1.1655943 2099461
-0.12615681 -0.39662114 -1.1534326 1901572
-0.062119246 -0.42301846 -1.3944454 7426640
-0.062734365 -0.42251956 -1.3924501 7362138
-0.064693928 -0.41890427 -1.3904939 7297357
-0.065962195 -0.4172003 -1.3878465 6902600
-0.067306638 -0.41408396 -1.3878853 7231567
-0.077948213 -0.39127183 -1.3841674 7754579
-0.085669518 -0.37352946 -1.3840554 7689045
-0.087245345 -0.37157601 -1.3804104 7557738
-0.092470884 -0.36193535 -1.3751936 7755331
-0.099383712 -0.34282288 -1.3821039 5710875
-0.094814181 -0.35665828 -1.374926 6373171
-0.096811891 -0.35233688 -1.3743128 6040361
-0.098540068 -0.34755877 -1.3760403 5908758
-0.10030639 -0.34207451 -1.3791111 5776656
-0.097772598 -0.35088235 -1.372663 5908770
-0.10015404 -0.34489915 -1.3737385 5908753
-0.10084534 -0.3429879 -1.3744296 6171413
-0.10257351 -0.33820978 -1.3761572 5776695
-0.10445547 -0.33330694 -1.377386 5973795
-0.10633755 -0.32840407 -1.3786147 6431253
-0.10772014 -0.32458159 -1.3799968 6366470
-0.10875702 -0.32171473 -1.3810333 6236676
-0.11144602 -0.31548208 -1.3811111 6434071
-0.11378932 -0.31020504 -1.3808435 6630180
-0.11786079 -0.30014986 -1.3823035 6497826
-0.11889768 -0.29728299 -1.38334 6563604
-0.12469745 -0.28244972 -1.3865274 6695446
-0.12842333 -0.27335021 -1.3876419 6827550
-0.12953639 -0.26907101 -1.3913647 7024935
-0.13091898 -0.26524851 -1.3927468 7090478
-0.13764143 -0.24966687 -1.3929414 8404254
-0.14063787 -0.24318475 -1.3920217 8274223
-0.18004107 -0.13424367 -1.4314104 8142388
-0.14125299 -0.24268582 -1.3900263 8273707
-0.14261019 -0.23933411 -1.3905131 8076060
-0.14463329 -0.23454192 -1.3907952 7286298
-0.17023611 -0.16335499 -1.4172589 6762794
-0.17184913 -0.1588954 -1.4188713 6763043
-0.17320585 -0.15464371 -1.4213151 7157273
-0.17508781 -0.14974087 -1.4225438 7550484
-0.17677796 -0.14566892 -1.4229283 7812625
-0.17819858 -0.14114028 -1.4256535 7879708
-0.17992681 -0.13636214 -1.427381 8011794
-0.1813221 -0.13230425 -1.4292109 8338738
-0.18267924 -0.12895256 -1.4296975 8141118
-0.21099645 -0.051062226 -1.4571344 6432535
-0.21203339 -0.048195302 -1.4581709 6631200
-0.21376163 -0.043417215 -1.4598985 7090730
-0.21860057 -0.030038476 -1.4647357 6895124
-0.22032881 -0.025260329 -1.4664633 6898960
-0.22171134 -0.021437824 -1.4678454 6964744
-0.22274828 -0.018571019 -1.468882 7357728
-0.14591432 -0.23260254 -1.3885956 7089175
-0.14728415 -0.22901541 -1.3895299 6497802
-0.1489743 -0.22494346 -1.3899144 6102018
-0.15070248 -0.22016534 -1.391642 6235142
-0.15243065 -0.21538723 -1.3933696 6432520
-0.15381324 -0.21156475 -1.3947517 6499336
-0.15513134 -0.20711923 -1.3978094 6827286
-0.1569494 -0.20249334 -1.3987567 6696489
-0.15865219 -0.19818601 -1.3995888 6827298
-0.16038048 -0.19340789 -1.4013164 6892560
-0.16210866 -0.18862978 -1.403044 6694446
-0.16349125 -0.18480727 -1.4044261 6825517
-0.16729331 -0.17429543 -1.4082267 6828290
-0.16833019 -0.17142856 -1.4092634 6696453
-0.16964829 -0.16698304 -1.4123211 6696457
-0.17151713 -0.16141561 -1.4150593 6893859
-0.17220843 -0.15950435 -1.4157503 6894121
-0.17601049 -0.14899251 -1.419551 7419412
-0.17771327 -0.14468515 -1.4203831 7681544
-0.17909586 -0.14086264 -1.4217652 7880212
-0.18257767 -0.13083565 -1.4261158 8142389
-0.18424875 -0.1271168 -1.4258287 8011324
-0.18595791 -0.12269175 -1.4268847 8142383
-0.2090261 -0.058512747 -1.4508145 5512194
-0.21019089 -0.055091918 -1.4524139 5841159
-0.21092027 -0.052474499 -1.4544481 6104847
-0.21330172 -0.046491325 -1.4555236 6499359
-0.2150172 -0.041948557 -1.4568034 6828063
-0.21606684 -0.038846314 -1.4582877 6827561
-0.21952325 -0.02929008 -1.4617429 6754066
-0.22059828 -0.02571708 -1.4641225 6034207
-0.22232646 -0.020938933 -1.4658501 6099977
-0.22425973 -0.015994549 -1.4669126 7281941
-0.22674364 -0.0099281669 -1.4676555 8207910
-0.2298544 -0.0013275743 -1.4707652 8736056
-0.14924371 -0.22540018 -1.3875737 6167310
-0.15097189 -0.22062206 -1.3893013 5907721
-0.16445196 -0.18335274 -1.4027764 7087397
-0.16621888 -0.1789484 -1.4034985 6695181
-0.16787028 -0.17450267 -1.4048884 6695697
-0.16949129 -0.17062184 -1.4052038 6760973
-0.17087388 -0.16679934 -1.4065858 6957834
-0.18615121 -0.12456077 -1.4218576 7684653
-0.18734163 -0.1210292 -1.4235697 7685418
-0.18891633 -0.11691576 -1.4246218 7747122
-0.19061917 -0.11260843 -1.4254539 7615529
-0.19264221 -0.10781628 -1.4257362 7352602
-0.19437045 -0.10303813 -1.4274638 7287592
-0.20750481 -0.06672442 -1.4405934 6697006
-0.2088874 -0.062901974 -1.4419754 6826523
-0.21012837 -0.058068812 -1.4462612 5903623
-0.21172869 -0.053844631 -1.4474258 6561037
-0.21311128 -0.050022125 -1.4488078 6694938
-0.21483946 -0.045243979 -1.4505355 7023902
-0.21662158 -0.040557265 -1.4517949 7615536
-0.21742493 -0.037294567 -1.4548601 6761521
-0.21871769 -0.033319831 -1.4570224 7155239
-0.22735876 -0.0094292164 -1.4656603 8341541
-0.23143029 0.00062590837 -1.4671203 9195577
-0.23308229 0.0039917231 -1.4661616 9591085
-0.23446488 0.0078141689 -1.4675436 9524249
-0.23619306 0.012592316 -1.4692712 9523521
-0.2379213 0.017370403 -1.4709988 9588552
-0.16975367 -0.17229974 -1.4002458 6366247
-0.17390144 -0.16083226 -1.404392 6827303
-0.18768895 -0.12331349 -1.4168695 6896165
-0.1888538 -0.11989266 -1.418469 7159840
-0.19049221 -0.11496234 -1.4209768 7485494
-0.19118345 -0.11305106 -1.4216678 7550501
-0.19325733 -0.10731733 -1.4237409 7287319
-0.19498551 -0.10253924 -1.4254684 7222314
-0.1963681 -0.098716736 -1.4268506 7485469
-0.19909513 -0.091777921 -1.4282715 8011055
-0.20078528 -0.08770597 -1.428656 8406325
-0.20152736 -0.084853113 -1.4311379 7943221
-0.20820975 -0.066377759 -1.4378178 8339506
-0.20946443 -0.063109159 -1.438637 8341286
-0.21327919 -0.052361965 -1.4428854 8209422
-0.2153784 -0.04615742 -1.4458539 8142370
-0.2178877 -0.03962028 -1.4474924 8603958
-0.18826598 -0.12352073 -1.4135312 6303277
-0.2014004 -0.087207019 -1.4266608 8537143
-0.20554805 -0.075739563 -1.430807 9128517
-0.20831323 -0.068094552 -1.4335711 9326128
-0.25002444 0.040017545 -1.4596064 10180665
-0.25071573 0.041928768 -1.4602975 10114880
-0.26055175 0.060711145 -1.451859 10117436
-0.26247323 0.063620269 -1.4485595 10313291
-0.26351017 0.066487134 -1.449596 10313050
-0.26454711 0.069354057 -1.4506327 9985107
-0.26508605 0.068440676 -1.4459511 10312283
-0.26577729 0.070351839 -1.4466422 10246496
-0.27269584 0.07866466 -1.4300671 8474377
-0.19755065 -0.15312979 -1.3027465 4852737
-0.19083112 -0.17411128 -1.2908092 4722177
-0.19154781 -0.17172927 -1.2923957 4983566
-0.19359624 -0.1664663 -1.2935734 4852489
-0.19500422 -0.16217303 -1.2958509 5115140
-0.19847333 -0.15238139 -1.2997537 4984065
-0.18860489 -0.18266967 -1.2833636 4855064
-0.18967992 -0.17909664 -1.2857432 4919553
-0.19140816 -0.17431852 -1.2874708 4526081
-0.19248313 -0.17074549 -1.2898505 4852491
-0.19421136 -0.16596738 -1.2915781 4787462
-0.19593954 -0.16118926 -1.2933056 4787716
-0.19732213 -0.15736675 -1.2946877 4524545
-0.19835907 -0.15449989 -1.2957244 4656642
-0.18733943 -0.18977353 -1.2742682 4787979
-0.18842715 -0.18596512 -1.2770956 4854028
-0.18916285 -0.18323001 -1.2793536 4787983
-0.18991131 -0.18025953 -1.2820594 5050377
-0.1854589 -0.19737631 -1.267168 5050881
-0.18615019 -0.19546506 -1.2678591 5116161
-0.18781394 -0.19006392 -1.2712624 4722955
-0.19037408 -0.18258524 -1.2746916 4787463
-0.18185014 -0.20975721 -1.2583404 4851984
-0.18463433 -0.20175913 -1.2617761 4786698
-0.18603593 -0.19758356 -1.2638297 4853506
-0.18743116 -0.19352567 -1.2656595 4722689
-0.18814784 -0.19114366 -1.267246 4658689
-0.17263496 -0.2388404 -1.2412982 4263458
-0.17367184 -0.23597354 -1.2423346 4394517
-0.17505443 -0.23215103 -1.2437167 4264468
-0.17680168 -0.22701985 -1.2461159 4656386
-0.17819059 -0.22307965 -1.2477218 4655617
-0.17927825 -0.21927124 -1.2505492 4655617
-0.18073702 -0.21403641 -1.2546176 4786701
-0.18211961 -0.2102139 -1.2559996 4720924
-0.18350214 -0.20639142 -1.2573817 4720386
-0.18453908 -0.20352453 -1.2584182 4720646
-0.17006302 -0.24835441 -1.2335069 4459015
-0.17092037 -0.24518308 -1.236104 4393218
-0.17255878 -0.24025273 -1.2386118 4524055
-0.17601514 -0.2306965 -1.242067 4067080
-0.17739773 -0.22687399 -1.2434491 4328705
-0.13914859 -0.33622956 -1.1973834 2884865
-0.14122248 -0.33049583 -1.1994566 2359553
-0.14225936 -0.32762897 -1.2004931 2294017
-0.16610861 -0.26169094 -1.2243338 4001025
-0.16787493 -0.25620666 -1.2274045 4131074
-0.16894996 -0.25263363 -1.2297841 4131845
-0.13546371 -0.35002279 -1.1858695 2625281
-0.13991797 -0.33650595 -1.1929322 2230273
-0.14460266 -0.32235193 -1.2002255 2688001
-0.14660037 -0.31803054 -1.1996123 2753025
-0.14832854 -0.31325239 -1.2013398 2687745
-0.15032625 -0.30893099 -1.2007267 2884357
-0.15205443 -0.30415288 -1.2024543 2950150
-0.1551652 -0.29555225 -1.2055639 3146753
-0.15671384 -0.29046968 -1.2088521 3408392
-0.15748131 -0.28714609 -1.2122293 3604760
-0.15938914 -0.28267244 -1.2123964 3671812
-0.16142488 -0.27764487 -1.2131264 3671822
-0.16337085 -0.27246505 -1.2146366 3803397
-0.16422808 -0.26929373 -1.2172337 4065283
-0.16534126 -0.26501453 -1.2209564 4131075
-0.16741502 -0.25928077 -1.2230295 4197121
-0.16810632 -0.25736952 -1.2237206 4196865
-0.13556719 -0.35173959 -1.1816227 2363908
-0.13671923 -0.34855419 -1.1827744 2363393
-0.13876772 -0.34329122 -1.1839521 2690565
-0.14022648 -0.33805639 -1.1880205 2298113
-0.15439773 -0.29887584 -1.2021866 3213313
-0.15543473 -0.29600897 -1.2032232 3015937
-0.11165535 -0.42065454 -1.1516292 1643266
-0.1286298 -0.37312281 -1.1699027 2557965
-0.13005054 -0.36859417 -1.1726279 2362113
-0.13108742 -0.36572728 -1.1736645 2297090
-0.13377643 -0.35949463 -1.1737423 853765
-0.13541472 -0.35456428 -1.1762502 1639939
-0.13627207 -0.35139292 -1.1788472 1968897
-0.13730896 -0.34852606 -1.1798837 1575425
-0.11223233 -0.42086178 -1.1482909 2101762
-0.11419189 -0.41724652 -1.1463346 1838081
-0.11661148 -0.41055715 -1.1487532 1771521
-0.12532866 -0.38525426 -1.1600773 2164488
-0.12782431 -0.37715256 -1.1651822 2165289
-0.12955248 -0.37237442 -1.1669098 2165514
-0.11860907 -0.40623575 -1.14814 1050126
-0.11964607 -0.40336886 -1.1491766 1443339
-0.12137425 -0.39859074 -1.1509042 1377541
-0.05206883 -0.43664575 -1.3929644 7032902
-0.053456426 -0.43280965 -1.3943514 7425863
-0.052686214 -0.43614504 -1.3909621 6837070
-0.054073691 -0.43230897 -1.3923491 7491666
-0.0598557 -0.41813171 -1.3942 7623758
-0.060419321 -0.4127728 -1.3946978 7425350
-0.061807752 -0.40893418 -1.3960857 6506060
-0.064326882 -0.4063732 -1.3973597 5583152
-0.061450005 -0.4159351 -1.3909914 7559770
-0.06208539 -0.41217819 -1.3918103 7820870
-0.061258435 -0.4078626 -1.3928413 7820861
-0.063386679 -0.40417886 -1.3943502 7031602
-0.06729579 -0.40057674 -1.3950888 6436942
-0.064072013 -0.41109771 -1.3883737 7756100
-0.06470871 -0.4073388 -1.3891904 8084291
-0.065801859 -0.40287584 -1.3909154 7691335
-0.067592144 -0.39816737 -1.3921812 7229770
-0.067017555 -0.39435828 -1.3933456 6044229
-0.073427558 -0.39085951 -1.3855021 7558217
-0.074121356 -0.38894147 -1.3861955 7361348
-0.081962705 -0.36951327 -1.3808229 7623008
-0.083423018 -0.36622921 -1.3778721 7557438
-0.085514903 -0.36391774 -1.3751956 7491907
-0.086512327 -0.36010325 -1.3757145 7689290
-0.088950396 -0.35502321 -1.3773184 6371888
-0.089246392 -0.34982926 -1.3787975 6039309
-0.093513489 -0.34678334 -1.3806964 5777419
-0.0948627 -0.34365594 -1.3807355 5710100
-0.096943855 -0.33790183 -1.382816 5513993
-0.097247601 -0.3326872 -1.3843012 5776146
-0.097116828 -0.32827076 -1.3862274 6171160
-0.09855938 -0.32420158 -1.3878446 5974283
-0.10033727 -0.31976989 -1.3885713 5837588
-0.092705011 -0.3508274 -1.3759592 6234396
-0.094439387 -0.34603229 -1.3776929 5908496
-0.095788598 -0.34290493 -1.377732 5908499
-0.097869873 -0.33715081 -1.3798125 5710613
-0.098174691 -0.33193517 -1.3812937 5907982
-0.098122716 -0.32790774 -1.3819804 6235911
-0.10010648 -0.3224808 -1.3838383 6105607
-0.10126567 -0.31901687 -1.3855598 5842962
-0.099142671 -0.33544075 -1.3771558 5841453
-0.10087693 -0.33064568 -1.3788894 6038547
-0.10191762 -0.32776865 -1.3799297 6561804
-0.1033051 -0.32393259 -1.3813167 6366982
-0.10442972 -0.31660619 -1.3805053 6303246
-0.10627961 -0.3131488 -1.3815287 6433815
-0.10690975 -0.30764422 -1.3820097 6761255
-0.10864866 -0.30283642 -1.3837481 6956337
-0.11212659 -0.29322082 -1.3872247 6300187
-0.11351776 -0.28937459 -1.3886154 6235434
-0.11490893 -0.28552836 -1.3900059 6236189
-0.11595225 -0.28264368 -1.3910489 6302503
-0.11105371 -0.30612725 -1.3812042 6761256
-0.11209428 -0.30325019 -1.3822445 6693928
-0.11065876 -0.29848817 -1.383131 6563362
-0.11391079 -0.29347199 -1.3844055 6431249
-0.11725914 -0.28957367 -1.3860977 6366502
-0.11794388 -0.28549781 -1.3873626 6497566
-0.11825848 -0.28056544 -1.3881797 6433583
-0.11962461 -0.27490872 -1.3894674 6564898
-0.12070632 -0.27131349 -1.3918618 6891286
-0.12336099 -0.267344 -1.3938522 6827034
-0.12608159 -0.26330003 -1.3948426 7025193
-0.12588489 -0.25760067 -1.3957253 7354386
-0.12692821 -0.25471601 -1.3967682 7551510
-0.12200058 -0.27827346 -1.3869084 6695458
-0.12304115 -0.27539641 -1.3879486 6695459
-0.12442863 -0.27156034 -1.3893356 6892317
-0.12824428 -0.26101118 -1.3931497 7287599
-0.12928486 -0.25813413 -1.39419 7485196
-0.13006818 -0.25346211 -1.3948692 7682839
-0.13086736 -0.24854597 -1.3959996 8009761
-0.13199174 -0.2431348 -1.3965772 8010793
-0.16433609 -0.15370983 -1.4289098 6893596
-0.16572726 -0.14986357 -1.4303005 7287071
-0.16711843 -0.14601731 -1.4316912 7354668
-0.17407417 -0.12678617 -1.4386444 8274209
-0.13398814 -0.24754259 -1.3936528 8340749
-0.1349932 -0.2431871 -1.3939213 8273186
-0.13554013 -0.23864675 -1.3941116 8010026
-0.13755655 -0.23358586 -1.395704 7482408
-0.13901484 -0.22903958 -1.3975852 6891553
-0.14078116 -0.22497886 -1.3986735 6366987
-0.14258075 -0.22174671 -1.4000138 6104335
-0.14358664 -0.21470511 -1.4002888 6364698
-0.14497781 -0.21085888 -1.4016795 6823200
-0.14671671 -0.20605108 -1.4034178 6761507
-0.14792705 -0.20189849 -1.4063786 6762001
-0.15164328 -0.19152343 -1.4103123 6892324
-0.15279615 -0.18843666 -1.4112459 6761491
-0.15409696 -0.18443722 -1.4134216 6497818
-0.15582633 -0.1798071 -1.4148221 6498083
-0.15776813 -0.17452893 -1.4165664 6695980
-0.15896595 -0.17097539 -1.4182889 6630426
-0.16035712 -0.16712916 -1.4196796 6564902
-0.16269267 -0.16260806 -1.4215076 6630965
-0.16472852 -0.15794694 -1.4232895 6763020
-0.16656494 -0.15432185 -1.4247442 6501406
-0.16874719 -0.1497412 -1.4265444 7091742
-0.17003834 -0.144719 -1.4282162 7223598
-0.17174828 -0.14110422 -1.4291722 7682597
-0.17332816 -0.13577443 -1.4311769 8010789
-0.17566574 -0.13101596 -1.432585 8141877
-0.17584789 -0.12720418 -1.4344049 8076589
-0.17667758 -0.12240958 -1.4351188 7814957
-0.19784158 -0.064701915 -1.4545242 6495001
-0.19992834 -0.058932543 -1.4566102 6431505
-0.20099723 -0.055574179 -1.4585541 6301235
-0.20295 -0.050094664 -1.4606812 6692638
-0.20437181 -0.045679986 -1.4631531 7090201
-0.20576298 -0.041833758 -1.4645437 7549231
-0.20728302 -0.037792385 -1.465713 7811382
-0.20957607 -0.031855702 -1.4671298 7944736
-0.21073532 -0.028650522 -1.4682887 7944998
-0.21279651 -0.023354828 -1.4694736 8011816
-0.21453547 -0.018547058 -1.4712119 8210203
-0.14034927 -0.23357332 -1.3921535 7351072
-0.14239228 -0.2285279 -1.392886 6563089
-0.14377975 -0.22469184 -1.394273 6170121
-0.14368927 -0.21913713 -1.3956956 6235156
-0.14519787 -0.21424031 -1.3973936 6430735
-0.14727056 -0.21068609 -1.3988991 6627349
-0.14991617 -0.20627439 -1.400786 6696488
-0.1507448 -0.2010816 -1.4023702 6565399
-0.15145445 -0.19694242 -1.4036479 6892060
-0.15341794 -0.19223914 -1.4054217 7087157
-0.15425313 -0.18702844 -1.407012 6760732
-0.15632021 -0.1834895 -1.4085119 6498342
-0.1573832 -0.17837438 -1.4101409 6629412
-0.1597954 -0.17388153 -1.4119858 6958607
-0.16320431 -0.17098701 -1.4136906 6761229
-0.16493869 -0.16619191 -1.4154242 6630167
-0.16671121 -0.16068816 -1.4185059 6762788
-0.16740501 -0.15877014 -1.4191993 6761499
-0.17260802 -0.14438492 -1.4244006 7943717
-0.1791985 -0.1261636 -1.4309886 8075838
-0.18001378 -0.12161005 -1.4312505 8009770
-0.17998946 -0.11587304 -1.432739 7813962
-0.18138057 -0.11202681 -1.4341296 7616826
-0.183429 -0.10696799 -1.434864 7485212
-0.18485844 -0.10241121 -1.4376062 7616016
-0.18621129 -0.099275529 -1.4376454 7617281
-0.18829805 -0.093506217 -1.4397314 7421464
-0.1928193 -0.081005931 -1.4442509 7222034
-0.19664496 -0.070428729 -1.4480753 6760965
-0.19768834 -0.067544103 -1.4491183 6628614
-0.19911778 -0.062987328 -1.4518604 6497296
-0.2021485 -0.058960676 -1.453757 5973001
-0.20406574 -0.054651141 -1.4551843 6038039
-0.20511967 -0.050444603 -1.457382 6432537
-0.20670199 -0.045768321 -1.4596186 6892575
-0.20996988 -0.041570008 -1.460701 7155758
-0.21176594 -0.036724865 -1.4622345 7353136
-0.21315342 -0.03288877 -1.4636215 7353631
-0.21455359 -0.028816521 -1.4654578 7223577
-0.21596658 -0.024507999 -1.4677433 7618332
-0.21642721 -0.018880248 -1.4693402 7817234
-0.21771449 -0.014271557 -1.4701328 8012836
-0.21888077 -0.010523319 -1.4710497 8275746
-0.21996593 -0.0056490302 -1.4720443 8538408
-0.22168571 -0.0011965036 -1.473107 8735800
-0.14470565 -0.22394082 -1.3912694 6168581
-0.14659429 -0.21902058 -1.3925027 6365708
-0.14817429 -0.21435067 -1.3947369 6562825
-0.14956176 -0.21051461 -1.3961239 6564364
-0.15198994 -0.20380148 -1.3985511 6827529
-0.15337741 -0.19996545 -1.3999381 6761773
-0.15441799 -0.19708839 -1.4009783 6825759
-0.15615237 -0.19229332 -1.402712 6760740
-0.15788662 -0.18749824 -1.4044456 6626855
-0.1592741 -0.18366218 -1.4058326 6628142
-0.16131711 -0.17861676 -1.4065652 6760730
-0.16283298 -0.17422479 -1.4085171 6894338
-0.16413033 -0.17023596 -1.4106871 6761732
-0.16517091 -0.16735891 -1.4117273 6695942
-0.18043309 -0.12516224 -1.426984 8141370
-0.18214834 -0.12072152 -1.4280437 8206634
-0.18188637 -0.1152215 -1.4288195 7944507
-0.18327618 -0.11137909 -1.4302088 7746607
-0.18567097 -0.10693264 -1.4320397 7353897
-0.18609631 -0.10140717 -1.433591 7680297
-0.18748748 -0.097560942 -1.4349816 7485207
-0.1890977 -0.093310535 -1.4361535 7093288
-0.19061756 -0.088906884 -1.4381106 7354157
-0.19235653 -0.084099114 -1.4398489 7615264
-0.19374764 -0.080252886 -1.4412396 7154995
-0.19548661 -0.075445116 -1.4429779 6760733
-0.19722557 -0.070637286 -1.4447162 6629651
-0.19861668 -0.066791058 -1.4461068 6497802
-0.201217 -0.062502146 -1.4479542 6431251
-0.20445716 -0.059142947 -1.4501262 5511941
-0.21165127 -0.038850844 -1.4581908 6959655
-0.21334738 -0.034764469 -1.4585766 6826287
-0.21438801 -0.031887412 -1.4596168 6954535
-0.22205734 -0.010080397 -1.4685931 7809560
-0.22252691 -0.0044310093 -1.470192 8275499
-0.22391623 -0.00058984756 -1.4715809 8604215
-0.2256133 0.0034991503 -1.4719676 8933178
-0.22570586 0.0074999928 -1.4718729 9130812
-0.18652385 -0.11073464 -1.4278337 7681834
-0.18845135 -0.10626698 -1.4278896 7418405
-0.18995428 -0.10185319 -1.4299532 7353386
-0.19165039 -0.097766757 -1.4303391 7353368
-0.19338465 -0.092971683 -1.4320728 7352093
-0.19468439 -0.087929547 -1.433746 7221546
-0.19563836 -0.083842158 -1.435074 7090458
-0.19775939 -0.079806507 -1.4363924 6957858
-0.19736767 -0.074202538 -1.4383417 6562835
-0.19963557 -0.06989336 -1.4398158 6560547
-0.2020821 -0.066096008 -1.4421569 6363943
-0.20452279 -0.061574519 -1.4445164 5839643
-0.20525473 -0.058947802 -1.4465578 4591882
-0.21056801 -0.042567134 -1.4499936 6958878
-0.21288586 -0.037849486 -1.4541862 6630446
-0.22879082 0.0053203106 -1.4683391 9129518
-0.22841209 0.0098122358 -1.4700061 9130781
-0.22989202 0.014160991 -1.4709343 9131321
-0.2307694 0.019081175 -1.471682 9457994
-0.16721678 -0.16773251 -1.4006754 6564367
-0.1680584 -0.1625098 -1.4022584 6760721
-0.19045693 -0.10347849 -1.4239072 7286562
-0.19427246 -0.092929304 -1.4277214 7747608
-0.19644386 -0.087328017 -1.4290187 7943474
-0.19839668 -0.082129836 -1.4305344 7943222
-0.19998461 -0.077860057 -1.4318599 8076862
-0.20151848 -0.073498666 -1.433655 8403512
-0.20290595 -0.069662631 -1.435042 8601392
-0.20394659 -0.066785574 -1.4360822 8602423
-0.20994937 -0.045847654 -1.4431915 8472094
-0.21040606 -0.040242016 -1.4447602 8603688
-0.21365887 -0.039933145 -1.445791 8669485
-0.23824835 0.027448297 -1.4690619 9851447
-0.19897574 -0.082337797 -1.4271841 8602688
-0.20069098 -0.077897072 -1.4282439 8997450
-0.20279127 -0.071788669 -1.4309983 9259318
-0.20383191 -0.068911552 -1.4320385 9325609
-0.21458483 -0.039182127 -1.4427875 9260589
-0.23787534 0.030594647 -1.4666678 9851956
-0.23841083 0.03456521 -1.4670644 9721400
-0.23977649 0.03793776 -1.4675541 9721396
-0.24183452 0.033745408 -1.4647886 9983027
-0.24223858 0.040881455 -1.4643977 9983790
-0.24341053 0.044962168 -1.4646209 9853748
-0.24576759 0.041001558 -1.460862 10049845
-0.24583203 0.046552479 -1.4615015 9983801
-0.24634898 0.050063491 -1.4609926 9983296
-0.25081778 0.052552104 -1.4606715 9984843
-0.25212878 0.05497086 -1.4593627 10050887
-0.25098807 0.059261978 -1.4577509 10116939
-0.25423604 0.064614236 -1.4531187 10116689
-0.2555505 0.067039371 -1.4518063 10051397
-0.25860751 0.065647125 -1.4501227 10182726
-0.26912928 0.08154583 -1.4236674 10706994
-0.26982391 0.083466411 -1.4243618 7088653
-0.27195281 0.083248258 -1.421553 6229761
-0.27430731 0.083124995 -1.4095 2752772
-0.27488637 0.082917035 -1.4061497 2883851
-0.19607651 -0.14703482 -1.3011746 4920592
-0.19659758 -0.14275146 -1.3023213 4920327
-0.19773626 -0.13803124 -1.3041022 4852227
-0.19939208 -0.13316774 -1.3051882 4786962
-0.20007086 -0.12899065 -1.3078917 4459525
-0.18960357 -0.16854912 -1.2868458 4983819
-0.19133788 -0.16375405 -1.2885795 4984580
-0.1930722 -0.15895894 -1.2903132 4919045
-0.19445968 -0.15512288 -1.2917001 4787969
-0.19608587 -0.15014449 -1.2943735 4984065
-0.19632024 -0.14511603 -1.2958013 5181185
-0.19641107 -0.14060336 -1.2968271 5117441
-0.19780225 -0.13675714 -1.2982177 4985345
-0.19920617 -0.13267404 -1.3000588 4854025
-0.27188778 0.060154855 -1.3717196 393474
-0.27292842 0.063031912 -1.3727598 196865
-0.27396899 0.065908909 -1.3738 393473
-0.18632883 -0.18001494 -1.2783334 4785932
-0.18760812 -0.17599553 -1.2806602 5049606
-0.18848687 -0.1713171 -1.2822627 4786433
-0.18856597 -0.16684097 -1.283268 4983842
-0.19008565 -0.16192973 -1.2849418 5049367
-0.19138879 -0.15690738 -1.2865539 4919048
-0.19408321 -0.15371618 -1.2883192 4984067
-0.19495285 -0.14847302 -1.2898073 4984321
-0.19594836 -0.14369655 -1.2924249 4787457
-0.18505889 -0.18714398 -1.2692058 4591880
-0.18588316 -0.1839003 -1.2721252 4787999
-0.1868881 -0.1790562 -1.273456 4656390
-0.18662 -0.17406079 -1.2750162 4788998
-0.18775761 -0.16936517 -1.2776713 4919556
-0.18883926 -0.16576993 -1.2800658 4983833
-0.19096488 -0.16037673 -1.2811401 4786705
-0.19240755 -0.15630755 -1.2827573 4787211
-0.19403052 -0.15182027 -1.2843797 5049615
-0.19518983 -0.14861506 -1.2855386 5114882
-0.18386537 -0.19285572 -1.262774 4722433
-0.18478608 -0.18642795 -1.2654693 4525569
-0.18475813 -0.1810841 -1.2672316 4591361
-0.18591738 -0.17787892 -1.2683904 4591617
-0.1868704 -0.17484105 -1.2702186 4659201
-0.1774689 -0.21295267 -1.2511411 4524805
-0.17920321 -0.2081576 -1.2528747 4458766
-0.18059069 -0.20432153 -1.2542617 4392964
-0.18221688 -0.19934314 -1.256935 4589832
-0.18375075 -0.19498172 -1.2587303 4655619
-0.18382215 -0.19053876 -1.259702 4526593
-0.18354869 -0.18704784 -1.2603322 4527105
-0.16856778 -0.24118009 -1.234385 4393477
-0.16995525 -0.23734403 -1.235772 4262668
-0.1710341 -0.2337583 -1.2381601 4393479
-0.17240882 -0.23015848 -1.2390978 4198405
-0.1742177 -0.22507709 -1.2410805 4197889
-0.17589033 -0.22033209 -1.2430146 4655365
-0.17608476 -0.21636418 -1.2451118 4917506
-0.17723203 -0.21130696 -1.2466557 4525827
-0.17867482 -0.20637533 -1.2482964 4395265
-0.18006468 -0.20253244 -1.2496858 4394757
-0.18102354 -0.19791925 -1.2517363 4524819
-0.18235201 -0.19277471 -1.2538834 4458764
-0.18374318 -0.18892848 -1.2552739 4460548
-0.18447703 -0.18629479 -1.2573208 4592897
-0.1361562 -0.3332032 -1.1967463 2687745
-0.13684988 -0.33128515 -1.1974399 2556161
-0.1652931 -0.25264591 -1.2258728 4130817
-0.16633368 -0.24976885 -1.226913 4131585
-0.16741252 -0.24618316 -1.2293011 4196610
-0.16870141 -0.24120709 -1.2308838 4262657
-0.16954625 -0.23604634 -1.232317 4066819
-0.17026889 -0.23192903 -1.2334824 4198401
-0.17126334 -0.22718078 -1.234657 4132353
-0.17387331 -0.2231147 -1.2370821 4131586
-0.1741612 -0.21844333 -1.2391297 4458756
-0.17555237 -0.21459708 -1.2405202 4524802
-0.13603377 -0.33272839 -1.1928424 2163457
-0.13674426 -0.32915178 -1.1942811 2425089
-0.13812864 -0.32459795 -1.1955782 2556161
-0.14089763 -0.32190299 -1.1975571 2621953
-0.15473413 -0.28425103 -1.2100788 3932694
-0.16167152 -0.26507074 -1.2170137 4064773
-0.1627121 -0.26219368 -1.2180539 4196613
-0.16377819 -0.2588442 -1.2199928 4196865
-0.16465247 -0.25295913 -1.221742 4195585
-0.1659199 -0.24848768 -1.2234461 4130053
-0.16566098 -0.24436295 -1.2253798 4131330
-0.1674 -0.23955515 -1.2271181 4263425
-0.16913891 -0.23474735 -1.2288564 4001026
-0.13547277 -0.33628845 -1.1851449 2231041
-0.13455451 -0.33278391 -1.189032 1245953
-0.13872802 -0.32124519 -1.1932039 2556417
-0.1407671 -0.31832853 -1.1934929 2490881
-0.1435281 -0.31492692 -1.1953821 2818561
-0.14491642 -0.31108832 -1.1967701 2818818
-0.14764392 -0.30626607 -1.1977524 2819086
-0.14969957 -0.30098441 -1.1989342 2820100
-0.15138304 -0.29713422 -1.1988707 3017220
-0.15300918 -0.2921558 -1.201544 3212290
-0.15454304 -0.28779441 -1.2033393 3474177
-0.15542901 -0.28450063 -1.2060585 3867913
-0.15725338 -0.27949706 -1.2077949 3737857
-0.15909052 -0.27461854 -1.2091949 3802881
-0.160478 -0.27078247 -1.2105818 3737857
-0.16203606 -0.26613045 -1.2128876 3868688
-0.16363811 -0.26144266 -1.2150505 4261380
-0.16368282 -0.25708783 -1.2159641 4327170
-0.16374958 -0.25236821 -1.2175598 4195841
-0.10648406 -0.42368186 -1.1487494 2952469
-0.12590873 -0.369977 -1.1681669 2361604
-0.12694931 -0.36709994 -1.1692071 2951937
-0.12833679 -0.36326391 -1.1705941 2296833
-0.13319302 -0.34983772 -1.1754484 1573889
-0.13426626 -0.34469724 -1.1779126 2623491
-0.13466322 -0.34033877 -1.1803997 2820364
-0.1344012 -0.3356261 -1.1836261 2296321
-0.14240038 -0.31351024 -1.1916223 2556673
-0.14413929 -0.30870247 -1.1933606 2753282
-0.14618778 -0.30364364 -1.1940951 2884869
-0.14756608 -0.30003428 -1.1950352 2885378
-0.15094781 -0.29519537 -1.1952749 3343878
-0.15194881 -0.29049522 -1.1971456 3343108
-0.15306687 -0.28583357 -1.1983454 3539457
-0.15414858 -0.28223833 -1.2007399 3737091
-0.15550077 -0.27801597 -1.2031422 3672577
-0.15700746 -0.27312475 -1.2062241 3802881
-0.15872085 -0.26879066 -1.2070614 3738114
-0.16027319 -0.2647005 -1.2081754 4131079
-0.16196692 -0.25981611 -1.2103063 4392194
-0.16291988 -0.25677827 -1.2121344 4393218
-0.10286248 -0.43610671 -1.1398903 2626563
-0.10214591 -0.43205386 -1.1411848 2755084
-0.10261285 -0.42754447 -1.1430948 2687771
-0.10518253 -0.4232564 -1.1450934 2690062
-0.10910618 -0.41884443 -1.1461316 2101506
-0.1226244 -0.3772462 -1.1604966 1705994
-0.12345791 -0.37313208 -1.1624868 2099738
-0.12369931 -0.36944672 -1.1637359 1640965
-0.12478101 -0.36585152 -1.1661303 2099713
-0.12754333 -0.36062884 -1.1678076 1639937
-0.1299566 -0.35637152 -1.1691358 1377538
-0.13134587 -0.35253036 -1.1705246 1835778
-0.13272893 -0.3479827 -1.1718154 2230023
-0.13362646 -0.34381044 -1.1738884 2492417
-0.099548578 -0.43863654 -1.1343412 2165761
-0.10059202 -0.43575186 -1.1353842 1839107
-0.10176408 -0.43230984 -1.1369936 1574919
-0.10937655 -0.41930276 -1.1437826 1772547
-0.11172819 -0.41400698 -1.1435139 1640197
-0.11346257 -0.40921193 -1.1452477 1312772
-0.11546731 -0.40487516 -1.1446323 1312533
-0.11654615 -0.40128946 -1.1470205 1377801
-0.11818326 -0.39053351 -1.1510929 1639170
-0.11976922 -0.38634774 -1.1550196 1574145
-0.11975873 -0.38215554 -1.1558571 1376769
-0.12080204 -0.37927085 -1.1569002 1770242
-0.13262689 -0.34657782 -1.1687206 2690584
-0.13401794 -0.34273162 -1.1701113 2492422
-0.11021507 -0.41095981 -1.1410643 1770248
-0.11125839 -0.40807515 -1.1421072 1443080
-0.11473632 -0.39845958 -1.1455839 1639938
-0.076678634 -0.3674469 -1.3812501 7688538
-0.078346848 -0.36404824 -1.3802822 7360595
-0.079316974 -0.36257949 -1.3786163 7885133
-0.080636024 -0.36014581 -1.3772993 7557995
-0.083661795 -0.35360044 -1.3763707 5783088
-0.094365954 -0.32582614 -1.3831174 6301965
-0.098457932 -0.31602937 -1.3839135 6105879
-0.10111547 -0.31080547 -1.3819578 6433563
-0.10592473 -0.29872227 -1.3841296 6761270
-0.10732079 -0.29486245 -1.3855252 6432028
-0.11290503 -0.27942324 -1.3911074 6237495
-0.11746144 -0.26652235 -1.3963211 6499112
-0.11918736 -0.26205415 -1.3973874 6696737
-0.11387515 -0.27795452 -1.3894416 6368835
-0.11527121 -0.2740947 -1.3908372 6433569
-0.12050653 -0.25962046 -1.3960705 7025438
-0.12155354 -0.25672561 -1.3971171 7223320
-0.12426877 -0.2504321 -1.3971958 7747875
-0.12531579 -0.24753726 -1.3982425 7812396
-0.19791096 -0.046827495 -1.4708112 7419928
-0.19930702 -0.042967677 -1.4722068 7682838
-0.20140111 -0.03717798 -1.4743001 8208188
-0.12768197 -0.24220872 -1.3979721 7878197
-0.1293757 -0.23833472 -1.3979083 7812407
-0.13161874 -0.2325379 -1.3992718 7350829
-0.13284028 -0.22916055 -1.400493 7154990
-0.13485742 -0.22479698 -1.3998739 6631185
-0.13629198 -0.22022411 -1.4026257 5712392
-0.13869655 -0.2141825 -1.4037116 6301189
-0.14009261 -0.21032271 -1.4051071 6826517
-0.14323378 -0.20163816 -1.4082471 6762247
-0.14497888 -0.1968134 -1.4099916 6762771
-0.14637494 -0.19295359 -1.4113872 6827553
-0.14850748 -0.18645084 -1.4148368 6696469
-0.14924395 -0.18380788 -1.4168907 6565912
-0.15249395 -0.17530778 -1.4190853 6433315
-0.1540395 -0.17014486 -1.4225631 6564629
-0.15521574 -0.16669065 -1.4241781 6630678
-0.15694153 -0.16222242 -1.4252445 6564651
-0.15901637 -0.15678924 -1.4266596 6827782
-0.16006351 -0.15389439 -1.4277062 6894352
-0.16153646 -0.14860848 -1.4318143 7222305
-0.16360486 -0.14329416 -1.4330035 7485767
-0.1652987 -0.13942015 -1.4329396 7618596
-0.16702449 -0.13495189 -1.434006 7881247
-0.16909945 -0.12951875 -1.4354212 8011302
-0.16965449 -0.12656832 -1.4390509 8142377
-0.17152655 -0.12195879 -1.4396924 8143398
-0.17363656 -0.11697435 -1.4399567 8208431
-0.17536891 -0.1123873 -1.4412491 7487282
-0.17708826 -0.10803795 -1.4420893 7814687
-0.17883337 -0.10321319 -1.4438338 7748134
-0.19314301 -0.063650191 -1.4581382 6631465
-0.19488806 -0.058825433 -1.4598826 6629902
-0.1963098 -0.054490209 -1.4621824 6237986
-0.19771862 -0.050392747 -1.46403 6827542
-0.19898826 -0.046124101 -1.4669465 7156238
-0.20070422 -0.041288912 -1.4688594 7681053
-0.20223987 -0.037043095 -1.4703945 8075839
-0.20402974 -0.032488883 -1.4713272 8208957
-0.20583886 -0.027578056 -1.4729379 8210477
-0.13858128 -0.21632168 -1.3996428 6170387
-0.13931775 -0.21367872 -1.4016969 6301455
-0.14071381 -0.20981893 -1.4030924 7022874
-0.1424588 -0.20499417 -1.4048369 6827037
-0.14517403 -0.19870067 -1.4049156 6827283
-0.1459105 -0.19605771 -1.4069695 7023642
-0.14708674 -0.19260353 -1.4085846 6891815
-0.14909017 -0.18666011 -1.4114658 6696213
-0.17495632 -0.11563116 -1.4362683 7879995
-0.17662394 -0.11114204 -1.4376717 7748146
-0.17801994 -0.10728222 -1.4390672 7746851
-0.17976505 -0.10245752 -1.4408118 7681570
-0.18151009 -0.097632766 -1.4425561 7158565
-0.18290615 -0.093772948 -1.4439517 7486261
-0.1849618 -0.088696241 -1.4446888 7483953
-0.1867069 -0.083871543 -1.4464333 7287604
-0.18779236 -0.080263615 -1.4488362 7614754
-0.18986726 -0.074830413 -1.4502513 6957578
-0.19128251 -0.0706141 -1.452325 6957837
-0.19267857 -0.066754341 -1.4537206 6627853
-0.19376409 -0.063146412 -1.4561235 6564129
-0.19548994 -0.05867815 -1.4571898 6694671
-0.19760329 -0.052531958 -1.4599613 6564665
-0.19830132 -0.050602019 -1.460659 6694439
-0.20493257 -0.032267988 -1.4672879 8140345
-0.20737571 -0.025513291 -1.4697301 8273709
-0.20842272 -0.022618473 -1.4707768 8405549
-0.2094698 -0.019723594 -1.4718235 8604201
-0.21253401 -0.012465179 -1.4722509 8474158
-0.21393007 -0.008605361 -1.4736465 8670509
-0.21532613 -0.004745543 -1.4750421 8866867
-0.17895162 -0.10652655 -1.4360452 7680290
-0.17999864 -0.10363173 -1.4370918 7484443
-0.18276513 -0.096387446 -1.4389788 7420946
-0.18392855 -0.093170941 -1.4401418 7618079
-0.18589348 -0.087940574 -1.4416667 7484696
-0.18763852 -0.083115816 -1.4434111 7418393
-0.18872404 -0.079507947 -1.4458141 7288346
-0.19077969 -0.0744313 -1.4465512 6892049
-0.19230491 -0.070012152 -1.4485151 6760967
-0.19361025 -0.065998614 -1.4506985 6628615
-0.21629626 -0.003276825 -1.4733763 8866604
-0.21802211 0.0011913776 -1.4744426 8998450
-0.2200585 0.0059115291 -1.4745016 9195838
-0.18473107 -0.092974663 -1.4365513 7159576
-0.22102863 0.0073802471 -1.4728358 9063996
-0.22304583 0.011743844 -1.4722166 9130814
-0.22409284 0.014638662 -1.4732633 9196606
-0.225761 0.018037319 -1.4722952 9000255
-0.22645903 0.019967258 -1.4729929 9262150
-0.23212308 0.031380057 -1.4694303 9654839
-0.23382968 0.035491705 -1.4698185 9524285
-0.23514885 0.037925363 -1.4685016 9590334
-0.23650646 0.04107213 -1.4685409 9525301
-0.23786402 0.044218898 -1.4685802 9655864
-0.23771018 0.041366637 -1.4631553 10376497
-0.23883414 0.045687616 -1.4669144 9721912
-0.24114907 0.050065458 -1.4648358 9919272
-0.24311495 0.053478241 -1.4624083 9984570
-0.24577892 0.058821023 -1.4606786 10050633
-0.25299573 0.071493268 -1.4520792 10051150
-0.25361681 0.071997046 -1.4500644 10182245
-0.19690418 -0.12605816 -1.303762 4853770
-0.19764072 -0.12341523 -1.3058159 4853017
-0.19642699 -0.12940001 -1.2988923 5051140
-0.19783586 -0.12530249 -1.3007398 4918533
-0.19857234 -0.12265956 -1.3027939 4983831
-0.19310635 -0.14141214 -1.289423 4854273
-0.19419187 -0.13780421 -1.291826 4920094
-0.19558793 -0.13394439 -1.2932215 4919563
-0.19733304 -0.12911963 -1.294966 5116161
-0.19885826 -0.12470055 -1.2969298 4918787
-0.18597221 -0.16356337 -1.2770202 5048841
-0.18701929 -0.16066852 -1.2780669 5048844
-0.18981141 -0.15294892 -1.280858 4985109
-0.19050944 -0.15101904 -1.2815559 5050146
-0.19260353 -0.14522934 -1.2836492 5312263
-0.19348729 -0.14205778 -1.286114 4985606
-0.19512355 -0.13704854 -1.2888038 4790036
-0.19617057 -0.13415372 -1.2898505 4200718
-0.19826466 -0.12836397 -1.2919439 4987137
-0.18120426 -0.1803861 -1.2643473 4526081
-0.18329835 -0.17459637 -1.2664406 4658689
-0.18428034 -0.17107242 -1.2691792 4657930
-0.18550783 -0.16666752 -1.2726027 4919590
-0.18659335 -0.16305959 -1.2750056 5246480
-0.18872648 -0.15764734 -1.2760837 4853253
-0.19017422 -0.1535638 -1.2777066 4984582
-0.19147956 -0.14955029 -1.2798901 5181709
-0.19287562 -0.1456905 -1.2812855 5442562
-0.18108886 -0.18252525 -1.2602785 4592129
-0.18248492 -0.17866546 -1.261674 4656897
-0.18366116 -0.17521125 -1.2632891 4592385
-0.18461752 -0.17216268 -1.2651236 4462337
-0.18163306 -0.18344757 -1.2555513 4591111
-0.17124248 -0.21642256 -1.2359397 4392961
-0.17278051 -0.21176574 -1.2383559 4394243
-0.17411149 -0.20727685 -1.2414434 4395269
-0.17550755 -0.20341703 -1.242839 4068866
-0.17690361 -0.19955721 -1.2442346 4329990
-0.17833811 -0.19498438 -1.2469864 4590359
-0.18009603 -0.18992192 -1.2491828 4393491
-0.18116868 -0.18655169 -1.2511337 4460298
-0.18221575 -0.18365684 -1.2521803 4656666
-0.16271222 -0.24243361 -1.2221415 4196611
-0.16445732 -0.23760885 -1.223886 4262145
-0.16620243 -0.23278409 -1.2256304 4197379
-0.167068 -0.2295818 -1.2282528 4066564
-0.16872239 -0.22460333 -1.2307851 4066050
-0.1704675 -0.21977857 -1.2325295 4000001
-0.13175428 -0.33004779 -1.1868021 1835777
-0.13327956 -0.32562864 -1.1887661 2556161
-0.13501179 -0.32104155 -1.1900585 2753025
-0.16116226 -0.24914563 -1.2153209 4000001
-0.16202796 -0.24594334 -1.2179433 4195843
-0.13036025 -0.33754262 -1.1775017 2884612
-0.13735235 -0.3161884 -1.188884 2425857
-0.13936949 -0.3118248 -1.1882648 2818561
-0.14111459 -0.30700007 -1.1900094 2884097
-0.14348078 -0.30167153 -1.189739 3278338
-0.14487684 -0.29781172 -1.1911346 3540225
-0.15185714 -0.27851269 -1.1981124 3867649
-0.15290415 -0.27561784 -1.199159 3869197
-0.15402818 -0.27129686 -1.2029182 3869441
-0.15507519 -0.26840201 -1.2039648 3672322
-0.15786731 -0.2606824 -1.206756 4326147
-0.15926337 -0.25682262 -1.2081516 4654849
-0.15999985 -0.25417966 -1.2102056 4458497
-0.16073632 -0.2515367 -1.2122595 4000513
-0.098304033 -0.4290024 -1.1393075 2884375
-0.10004902 -0.42417765 -1.1410519 2622999
-0.12098992 -0.36628059 -1.1619852 1248258
-0.1223861 -0.3624208 -1.1633807 1377793
-0.12343311 -0.35952595 -1.1644274 1443073
-0.1304903 -0.33880082 -1.1741177 2950401
-0.095358014 -0.43957424 -1.1310914 2230018
-0.098848224 -0.42992473 -1.1345801 1377285
-0.10171723 -0.42077899 -1.1400838 2296843
-0.10373437 -0.41641542 -1.1394646 1116935
-0.11664796 -0.38071224 -1.1523736 787457
-0.12475228 -0.35709226 -1.1631105 1705217
-0.12545025 -0.35516232 -1.1638082 1770757
-0.12775135 -0.34920472 -1.16523 2624264
-0.12991059 -0.34404409 -1.1656313 2820878
-0.097026229 -0.43617558 -1.1301233 1902081
-0.098073244 -0.43328077 -1.1311699 1640449
-0.10505354 -0.41398171 -1.1381477 1770254
-0.10575151 -0.4120518 -1.1388454 1966859
-0.10846674 -0.40575832 -1.1389241 1573894
-0.073859096 -0.36355388 -1.381629 7033168
-0.076079249 -0.36106887 -1.3759137 7688267
-0.077272415 -0.35736406 -1.3779881 7097415
-0.078881145 -0.35332215 -1.3787147 5453360
-0.09607482 -0.31080842 -1.3849921 6236695
-0.09803164 -0.30768174 -1.381989 6564643
-0.10013306 -0.30187166 -1.3840897 6760503
-0.10285783 -0.29555604 -1.3841685 6563881
-0.11231434 -0.26941079 -1.3936217 6564127
-0.11379242 -0.2641063 -1.3977442 6368562
-0.11551797 -0.25974163 -1.3985873 6631438
-0.11721766 -0.25585401 -1.3985232 7090703
-0.11959219 -0.25050673 -1.398252 7615783
-0.12231696 -0.24419111 -1.3983309 7877934
-0.12336767 -0.2412861 -1.3993813 7812659
-0.12476861 -0.23741272 -1.4007818 7681841
-0.12687016 -0.23160267 -1.4028823 7153969
-0.12792087 -0.22869763 -1.4039328 6891572
-0.13002229 -0.22288758 -1.4060334 6300177
-0.13072276 -0.2209509 -1.4067336 6104595
-0.15068662 -0.16575536 -1.4266902 6499866
-0.15173733 -0.16285035 -1.4277406 6500138
-0.15874219 -0.14348352 -1.4347429 7615793
-0.16539669 -0.125085 -1.441395 8208433
-0.16679776 -0.12121159 -1.4427955 8274738
-0.16854894 -0.1163699 -1.4445461 8143388
-0.19358432 -0.046340704 -1.4713356 7354140
-0.19538105 -0.041576147 -1.4726908 7682591
-0.19708669 -0.036657274 -1.4748368 8010813
-0.19869548 -0.032615423 -1.4755633 8275001
-0.20077121 -0.027282357 -1.4767567 8603705
-0.12641692 -0.23447919 -1.3989029 7614743
-0.12714314 -0.23206544 -1.4005105 7350048
-0.12921894 -0.22673243 -1.4017038 6892590
-0.13082767 -0.22269055 -1.4024303 6236942
-0.13266981 -0.21800309 -1.4033903 5909002
-0.13442099 -0.21316138 -1.4051409 6367246
-0.13582206 -0.209288 -1.4065413 6628640
-0.13786554 -0.20455131 -1.4066005 6761499
-0.13963604 -0.19935182 -1.4090316 6762249
-0.14107561 -0.19476289 -1.411793 6565662
-0.14203537 -0.19170359 -1.4136341 6762544
-0.14352739 -0.18798447 -1.4142438 6566164
-0.14500546 -0.18267998 -1.4183663 6630406
-0.14702976 -0.17830104 -1.417745 6434591
-0.14815772 -0.17396489 -1.4215174 6434089
-0.14955866 -0.17009151 -1.4229178 6499881
-0.15341127 -0.15943974 -1.4267691 6695971
-0.15481234 -0.15556639 -1.4281696 6762246
-0.15621328 -0.15169302 -1.42957 6894862
-0.16146684 -0.13716787 -1.4348217 7618595
-0.16251755 -0.13426286 -1.4358721 7815208
-0.16426885 -0.12942111 -1.4376227 8011306
-0.16917217 -0.11586434 -1.4425243 8208656
-0.17124796 -0.11053133 -1.4437176 7618348
-0.17294765 -0.10664368 -1.4436535 7880225
-0.17434859 -0.10277033 -1.4450539 7813924
-0.17651534 -0.097591579 -1.4454566 7420697
-0.17847437 -0.092581332 -1.4465333 7682868
-0.17952508 -0.089676321 -1.4475837 7747847
-0.18162656 -0.083866239 -1.4496844 7418903
-0.18337774 -0.079024553 -1.451435 7614236
-0.18477869 -0.075151205 -1.4528354 7089179
-0.18652993 -0.07030946 -1.4545859 6892838
-0.1881901 -0.065313458 -1.4571272 6695960
-0.18873429 -0.062591255 -1.4603161 6762001
-0.19045979 -0.058226585 -1.4611592 6564878
-0.19183701 -0.053688169 -1.4641229 6499620
-0.19333893 -0.049048722 -1.4666822 6959130
-0.2013945 -0.026776791 -1.4747348 8407340
-0.20408064 -0.021176755 -1.4734527 8604454
-0.1804986 -0.088202417 -1.445912 7551006
-0.18224984 -0.083360672 -1.4476626 7157029
-0.18540204 -0.074645638 -1.4508135 7088402
-0.20676678 -0.01557672 -1.4721706 8669733
-0.20746726 -0.013640046 -1.4728708 8735021
-0.21334422 0.0013906956 -1.4761008 9129513
-0.21474516 0.0052640438 -1.4775012 9391906
-0.21606892 0.0077062845 -1.4761796 9392692
-0.21774292 0.011116862 -1.4752082 9326921
-0.2187165 0.012590766 -1.4735365 9196101
-0.22249198 0.021811426 -1.4746658 9459008
-0.22848755 0.033517063 -1.4700797 9786167
-0.22918802 0.035453796 -1.4707799 9785401
-0.23156255 0.040801048 -1.4705087 9328705
-0.23323655 0.044211626 -1.4695373 9656380
-0.23459893 0.047369421 -1.4695767 9721154
-0.23724651 0.052253902 -1.4669335 9853498
-0.23892051 0.055664539 -1.4659621 10181178
-0.24086761 0.058612287 -1.4626187 9985099
-0.24351513 0.063496828 -1.4599756 10116423
-0.24709767 0.0691396 -1.4542997 10116446
-0.24842143 0.071581841 -1.4529781 10050884
-0.25079596 0.076929092 -1.4527069 9853254
-0.25141925 0.077434659 -1.4506851 9984592
-0.19458443 -0.11988556 -1.3065904 4983817
-0.19581175 -0.11923224 -1.3018663 4918541
-0.19621986 -0.11719054 -1.304258 5181186
-0.19629997 -0.12123114 -1.2950809 4919560
-0.19668877 -0.11954725 -1.296792 4853263
-0.19124222 -0.13765019 -1.2847353 4987393
-0.19229293 -0.13474518 -1.2857857 4987649
-0.19360286 -0.13071752 -1.2879767 4528129
-0.19482177 -0.12653565 -1.2909584 4986881
-0.19657302 -0.12169397 -1.2927091 4920834
-0.18155408 -0.16808882 -1.2671161 4722953
-0.18260479 -0.16518381 -1.2681664 4984857
-0.18373275 -0.16084766 -1.2719388 5049880
-0.18478346 -0.15794262 -1.2729892 5050375
-0.18719655 -0.15187979 -1.274079 5181443
-0.18863612 -0.14729083 -1.2768404 5050369
-0.19116497 -0.13908136 -1.2820133 4855556
-0.18104947 -0.17191944 -1.2613219 4527361
-0.1821388 -0.16829884 -1.2637333 4331011
-0.17905283 -0.17946914 -1.2549179 4656140
-0.18023318 -0.1760028 -1.2565386 4853506
-0.18132252 -0.17238221 -1.25895 4657921
-0.17583728 -0.19120073 -1.2455323 4525098
-0.17653775 -0.18926406 -1.2462325 4394014
-0.178289 -0.18442234 -1.247983 4459786
-0.17933977 -0.1815173 -1.2490333 4656401
-0.16439795 -0.22648108 -1.2261624 4262916
-0.16579902 -0.2226077 -1.2275629 4197378
-0.16719997 -0.21873432 -1.2289634 4131841
-0.16832781 -0.21439818 -1.2327358 4262401
-0.17015624 -0.20812535 -1.2372084 4394499
-0.17120695 -0.20522031 -1.2382587 4395267
-0.1726079 -0.20134693 -1.2396592 4132867
-0.1743592 -0.19650522 -1.2414098 4460040
-0.17611039 -0.1916635 -1.2431602 4525095
-0.1771611 -0.18875849 -1.2442107 4263459
-0.17856205 -0.18488511 -1.2456112 4525582
-0.15934026 -0.24290013 -1.2158167 4327169
-0.16011786 -0.23953232 -1.219239 4261633
-0.16186917 -0.23469061 -1.2209897 4327681
-0.16327012 -0.23081723 -1.2223901 4459010
-0.16432083 -0.22791219 -1.2234404 4393477
-0.12792325 -0.3317906 -1.1800032 2294529
-0.12925148 -0.32779384 -1.1820362 2294273
-0.13121796 -0.3222757 -1.1841782 2753025
-0.13260603 -0.31864086 -1.185125 3015425
-0.13431871 -0.3145147 -1.1855146 2556673
-0.15743458 -0.25060409 -1.2086222 4459009
-0.1582123 -0.24723628 -1.2120445 3803649
-0.12673199 -0.33914328 -1.169996 2622722
-0.12750971 -0.33577546 -1.1734183 2622721
-0.13389122 -0.31691417 -1.1824424 2949638
-0.13529217 -0.31304079 -1.1838429 2621958
-0.13700473 -0.30891466 -1.1842325 3080961
-0.13875604 -0.30407295 -1.1859831 3015429
-0.1404686 -0.29994678 -1.1863726 3212546
-0.1422199 -0.2951051 -1.1881232 3540481
-0.14432132 -0.28929502 -1.1902239 3475201
-0.1450218 -0.28735834 -1.1909242 3474689
-0.14712322 -0.28154826 -1.1930249 3540481
-0.14852417 -0.27767491 -1.1944252 3868417
-0.15000236 -0.2723704 -1.1985477 4000025
-0.15105307 -0.26946539 -1.1995981 4000010
-0.15280426 -0.26462367 -1.2013487 3934982
-0.15420532 -0.26075029 -1.2027491 4262160
-0.095794916 -0.42650414 -1.135103 2163741
-0.096884251 -0.42288351 -1.1375144 2360857
-0.09925878 -0.41753626 -1.137243 1510407
-0.11151719 -0.38364425 -1.149497 1180931
-0.11396897 -0.37686586 -1.1519479 1770242
-0.11470795 -0.37421361 -1.1540091 1442563
-0.11645913 -0.36937186 -1.1557597 1770753
-0.11821043 -0.36453021 -1.1575103 1508609
-0.11961138 -0.3606568 -1.1589108 1312001
-0.12035048 -0.35800457 -1.160972 1639681
-0.123101 -0.35121194 -1.1619582 2229774
-0.12447619 -0.34781557 -1.1624513 2887939
-0.12727809 -0.34006882 -1.1652522 2490884
-0.093850732 -0.43492362 -1.1265473 1967361
-0.094940066 -0.43130305 -1.1289587 1705217
-0.095679164 -0.42865083 -1.1310198 1771009
-0.10159469 -0.41290453 -1.1356108 1835530
-0.10330725 -0.4087784 -1.1360004 1835528
-0.10680974 -0.39909494 -1.1395016 1639943
-0.10828781 -0.39379048 -1.1436241 1901829
-0.10933864 -0.39088541 -1.1446743 2163458
-0.11073959 -0.38701206 -1.1460748 2097921
-0.12544978 -0.34634167 -1.1607797 3018497
-0.12685072 -0.34246832 -1.1621802 2754051
-0.12027621 -0.36490744 -1.1463509 4527873
-0.12066495 -0.36322352 -1.148062 4068609
-0.071672559 -0.35913327 -1.3799864 7361354
-0.072726965 -0.35621807 -1.3810405 6899277
-0.073352456 -0.35571074 -1.3790115 6570821
-0.075083852 -0.35133076 -1.3798577 5318968
-0.076125503 -0.34865493 -1.3804564 5579047
-0.094144464 -0.30474216 -1.3856407 6366256
-0.10838604 -0.26618242 -1.3981076 6172204
-0.10944045 -0.26326722 -1.3991617 6237741
-0.094952703 -0.30454445 -1.3820251 6629932
-0.097061515 -0.29871404 -1.3841331 6758974
-0.097764492 -0.29677057 -1.3848358 6563141
-0.10612226 -0.27488512 -1.3905364 6171686
-0.10717666 -0.27196991 -1.3915905 6368025
-0.10830855 -0.26761857 -1.3953761 6368300
-0.11526036 -0.24961999 -1.3996713 7547931
-0.12158692 -0.2321288 -1.4059955 7286322
-0.1894204 -0.044584036 -1.4738044 7616031
-0.19082624 -0.040697098 -1.4752097 7814947
-0.19242722 -0.035965323 -1.4774736 8077106
-0.19398946 -0.031951547 -1.4783717 8340530
-0.11764324 -0.24425399 -1.3993992 7746096
-0.11904919 -0.24036708 -1.4008045 7681330
-0.12113857 -0.23489571 -1.4022297 7484705
-0.12256384 -0.23064974 -1.404318 7154743
-0.12429523 -0.22626975 -1.4051641 6694191
-0.12546682 -0.22303063 -1.4063352 6367260
-0.12709427 -0.21873525 -1.4075196 6170134
-0.13724804 -0.19127303 -1.4163427 6894378
-0.1397084 -0.18447089 -1.418802 6957328
-0.14076281 -0.18155569 -1.4198561 6760719
-0.14392591 -0.17281005 -1.4230182 6433817
-0.14568329 -0.16795141 -1.4247749 6433562
-0.14681518 -0.16360006 -1.4285605 6434341
-0.14884651 -0.15920579 -1.427937 6631224
-0.15014279 -0.1551331 -1.4302944 6762516
-0.15169704 -0.15071386 -1.4321134 6894090
-0.15310287 -0.14682692 -1.4335189 7091234
-0.15468454 -0.14245409 -1.4350998 7418412
-0.1565789 -0.13782763 -1.4356664 7551015
-0.16079652 -0.12616682 -1.4398825 8077354
-0.16227984 -0.12084377 -1.4440196 8208451
-0.16677141 -0.10964733 -1.4458554 7879488
-0.16817737 -0.1057604 -1.4472607 8075827
-0.18715668 -0.053286791 -1.4662331 6958124
-0.18880439 -0.048242331 -1.4689419 7025696
-0.19250613 -0.037274599 -1.4742348 7879214
