# .PCD v0.7 - Point Cloud Data file format
VERSION 0.7
FIELDS x y z rgba
SIZE 4 4 4 4
TYPE F F F U
COUNT 1 1 1 1
WIDTH 1167
HEIGHT 1
VIEWPOINT 0 0 0 1 0 0 0
POINTS 1167
DATA ascii
0.10404753 0.067904778 -1.1500001 4920065
0.10295229 0.072285727 -1.1500001 5443073
0.10284065 0.077404961 -1.1512001 5115397
0.1032799 0.082665533 -1.1512001 4788482
0.10315441 0.087791197 -1.1522501 4854273
0.10285481 0.091873974 -1.1530001 4984577
0.10842849 0.042714294 -1.1500001 4854273
0.10842848 0.048190486 -1.1500001 5117441
0.1085699 0.052641433 -1.1515 4856321
0.10871132 0.057100955 -1.153 4855298
0.10777743 0.062998101 -1.1524 4724993
0.10651514 0.068081908 -1.153 4856071
0.10651514 0.071376197 -1.153 5117465
0.11280943 0.017523816 -1.1500001 4852491
0.11280943 0.023000007 -1.1500001 5115913
0.11280943 0.029571436 -1.1500001 4984069
0.11280943 0.032857146 -1.1500001 4788225
0.11227546 0.037667945 -1.1520001 4656641
0.11161286 0.042319626 -1.1512001 4788481
0.11216751 0.047632765 -1.1523999 4986881
0.11163959 0.052342545 -1.1530001 4987393
0.11938088 0.0076666726 -1.1500001 4788749
0.11775304 0.013375625 -1.1512001 5115142
0.11729419 0.017539056 -1.151 4917766
0.11734514 0.021933815 -1.1515 5050120
0.11669637 0.027098648 -1.1512858 4854307
0.1152999 0.032942858 -1.153 4723201
0.1152999 0.036237147 -1.153 4264193
0.1152999 0.042825717 -1.153 4723457
0.12376182 -0.0065714233 -1.1500001 4068118
0.12303166 -0.0018253915 -1.1500001 4592645
0.12282799 0.0021933387 -1.1515 4656898
0.12264009 0.0072405776 -1.1518 4592401
0.12188847 0.012079053 -1.153 5180435
0.12188847 0.018667623 -1.153 5049882
0.12814277 -0.012047615 -1.1500001 4721669
0.12690149 -0.0076780897 -1.152 4459783
0.12628084 -0.0021961848 -1.153 4591876
0.13471419 -0.055857141 -1.1500001 4655873
0.13471419 -0.052571423 -1.1500001 4721409
0.13361895 -0.048190475 -1.1500001 4852993
0.13171667 -0.04229847 -1.1506001 4787723
0.13142847 -0.037238091 -1.1500001 4788481
0.13151489 -0.032879278 -1.15075 4787969
0.13154373 -0.027404757 -1.151 4853505
0.13160133 -0.021933328 -1.1515 4853264
0.13050322 -0.017545233 -1.1515 4657681
0.13067323 -0.013177137 -1.153 4787461
0.13909514 -0.086523809 -1.1500001 4393473
0.1392161 -0.082212381 -1.151 4655362
0.13909514 -0.076666661 -1.1500001 4591873
0.13945799 -0.072474279 -1.153 4854273
0.13818133 -0.067993328 -1.1515 4788226
0.13754301 -0.063018329 -1.15075 4918533
0.13726179 -0.057100944 -1.153 4786946
0.13506562 -0.045021895 -1.153 4984321
0.13506562 -0.04172761 -1.153 5050113
0.13506562 -0.037335232 -1.153 5117697
0.14347611 -0.18619049 -1.1500001 2556929
0.14347611 -0.18180954 -1.1500001 2426369
0.14347611 -0.17742857 -1.1500001 2492161
0.14347611 -0.097476192 -1.1500001 4984587
0.14238085 -0.092 -1.1500001 4853764
0.14247443 -0.087675475 -1.15075 4853762
0.14245893 -0.082752377 -1.1524 4921106
0.14238624 -0.077232696 -1.1530001 5051906
0.14165418 -0.071376182 -1.153 5182721
0.14785707 -0.19166668 -1.1500001 2294785
0.14695325 -0.18752858 -1.1515 2360577
0.14677864 -0.18264984 -1.1530001 2557441
0.14665198 -0.17737207 -1.152 2558212
0.1472123 -0.17265962 -1.1518 2295814
0.14654276 -0.16713333 -1.1500001 2622980
0.14785706 -0.16209525 -1.1500001 2884865
0.14785706 -0.15771431 -1.1500001 2950401
0.14785706 -0.1522381 -1.1500001 3212545
0.14785706 -0.14676192 -1.1500001 3736577
0.14785706 -0.14238095 -1.1500001 3671809
0.14785706 -0.13909525 -1.1500001 3671553
0.14785706 -0.13252382 -1.1500001 3672578
0.14785706 -0.12704763 -1.1500001 3738113
0.14785706 -0.12266666 -1.1500001 4131073
0.14676182 -0.11719047 -1.1500001 4525323
0.14676182 -0.11171429 -1.1500001 4721673
0.14676182 -0.10733333 -1.1500001 4984580
0.14685823 -0.10301881 -1.15075 5050373
0.14695467 -0.097603336 -1.1515001 5247747
0.14704967 -0.092180707 -1.1522501 5117186
0.14695467 -0.087733328 -1.1515 5051650
0.14665197 -0.083747938 -1.152 5183760
0.15223801 -0.30776194 -1.1500001 2097665
0.15442848 -0.29242861 -1.1500001 2229252
0.15442848 -0.28695241 -1.1500001 2031875
0.15442848 -0.25519049 -1.1500001 2491919
0.15442848 -0.25300002 -1.1500001 2622721
0.15442848 -0.24752383 -1.1500001 2492678
0.15442848 -0.24314287 -1.1500001 2165522
0.15442848 -0.2376667 -1.1500001 2493190
0.15442848 -0.23328574 -1.1500001 2885384
0.15333325 -0.19714287 -1.1500001 2491138
0.15263514 -0.19436285 -1.153 2425602
0.15104054 -0.16640064 -1.152 2818561
0.15237229 -0.1622362 -1.151 2884113
0.15243848 -0.15792048 -1.1515 3015430
0.15178318 -0.15272124 -1.1512858 3343617
0.15134133 -0.14695334 -1.1515 3867393
0.15134133 -0.14256668 -1.1515 3802882
0.15207244 -0.13744843 -1.1515 3671316
0.15108258 -0.13222288 -1.1512001 3803151
0.15134133 -0.12721334 -1.1515 4000518
0.15134133 -0.12282666 -1.1515 4261634
0.15189582 -0.11709592 -1.152143 4393479
0.15195991 -0.11204991 -1.1512001 4721684
0.15143918 -0.10754261 -1.1522501 5181705
0.15043893 -0.10322094 -1.153 5181958
0.15043893 -0.099926658 -1.153 5118724
0.15682325 -0.30267859 -1.1515 2558466
0.15792134 -0.29719526 -1.1515 3081985
0.15766087 -0.2922945 -1.1512001 2754050
0.15812562 -0.28770095 -1.153 3212802
0.15812562 -0.28221047 -1.153 3345154
0.15812562 -0.27781808 -1.153 3345924
0.15771422 -0.27490479 -1.1500001 3149062
0.15880945 -0.26723811 -1.1500001 2624002
0.15771422 -0.25519049 -1.1500001 2820629
0.15734914 -0.25226986 -1.1500001 2952194
0.15771422 -0.24752383 -1.1500001 2952457
0.15792134 -0.24346 -1.1515 2952475
0.15771422 -0.2376667 -1.1500001 3214861
0.1580793 -0.21649209 -1.1500001 1966850
0.15748723 -0.21302699 -1.151 1770242
0.15792134 -0.20836666 -1.1515 3017473
0.15771422 -0.20261908 -1.1500001 3478274
0.16141993 -0.29758382 -1.1530001 4395524
0.16256733 -0.29244593 -1.1518 5118473
0.16251799 -0.28770095 -1.153 4921618
0.16251799 -0.2822105 -1.153 4792579
0.16251799 -0.27781808 -1.153 4794113
0.16187611 -0.27271435 -1.1500001 4399617
0.16209516 -0.26723811 -1.1500001 3606531
0.16209516 -0.26285717 -1.1500001 2950145
0.16231421 -0.25694287 -1.1500001 3409667
0.16209516 -0.25190479 -1.1500001 3411715
0.16141991 -0.24816951 -1.153 3345670
0.16141991 -0.24048285 -1.153 3873034
0.16209516 -0.23657143 -1.1500001 4529941
0.16127992 -0.20296952 -1.152 4399625
0.16538087 -0.29133335 -1.1500001 5578518
0.1668011 -0.28751311 -1.1522501 5381930
0.16719365 -0.28189582 -1.1517143 5120779
0.16691038 -0.27671999 -1.153 5121284
0.16725843 -0.27208847 -1.1500002 5122819
0.16739324 -0.26787487 -1.1518 4925209
0.16669077 -0.26288399 -1.153 4854026
0.16538087 -0.25628573 -1.1500001 4460295
0.17020467 -0.28221047 -1.153 5383442
-0.065012492 0.19724096 -1.1570001 8538684
-0.060604867 0.066114292 -1.1570001 6763297
-0.060604867 0.076031432 -1.1570001 7220787
-0.06060487 0.19283333 -1.1570001 8077106
-0.061486393 0.1968002 -1.1570001 8340268
-0.06060487 0.20164859 -1.1570001 8603198
-0.058401052 -0.056197148 -1.1570001 5974825
-0.058401052 -0.052891437 -1.1570001 6303249
-0.056197245 -0.040770482 -1.1570001 7416608
-0.057299152 -0.037464768 -1.1570001 7220278
-0.057299148 -0.034159053 -1.1570001 7155755
-0.056197248 -0.027547626 -1.1570001 6958640
-0.056197245 -0.022038097 -1.1570001 6696236
-0.057299148 -0.017630478 -1.1570001 6433327
-0.058401056 -0.013222861 -1.1570001 6105635
-0.057299148 -0.0071623833 -1.1570001 6236697
-0.05693185 -0.0018365104 -1.1570001 6499350
-0.056197245 0.002203807 -1.1570001 6630926
-0.056748193 0.0071623786 -1.1570001 6959370
-0.056197245 0.034159046 -1.1570001 6105899
-0.056197245 0.038566664 -1.1570001 6956596
-0.056197245 0.041872378 -1.1570001 6562355
-0.056197248 0.05619714 -1.1570001 6695459
-0.058401059 0.061706666 -1.1570001 6826801
-0.058401059 0.069420002 -1.1570001 6631214
-0.058401059 0.072725713 -1.1570001 6893369
-0.058401059 0.077133335 -1.1570001 7221308
-0.058401059 0.081540957 -1.1570001 7353156
-0.058401059 0.088152386 -1.1570001 7614787
-0.057299152 0.092560008 -1.1570001 7746609
-0.056931853 0.096600324 -1.1570001 7747107
-0.056748204 0.10247715 -1.1570001 8010514
-0.056197248 0.11790381 -1.1570001 7945023
-0.056197252 0.12231144 -1.1570001 7880245
-0.056197248 0.12782097 -1.1570001 7813181
-0.056197252 0.13112667 -1.1570001 7618105
-0.057299156 0.18291619 -1.1570001 7288098
-0.058401063 0.18732381 -1.1570001 7616302
-0.058401063 0.19173142 -1.1570001 7944005
-0.058401063 0.20164859 -1.1570001 8535615
-0.056197256 0.21376953 -1.1570001 8867391
-0.056197256 0.21817715 -1.1570001 8933430
-0.056197256 0.22258477 -1.1570001 9065281
-0.053993437 -0.031955242 -1.1570001 7353644
-0.053993437 -0.020936193 -1.1570001 6827314
-0.053993437 0.0022038072 -1.1570001 6565139
-0.053993437 0.013222856 -1.1570001 7090949
-0.053993437 0.017630475 -1.1570001 7220508
-0.053993437 0.020936189 -1.1570001 7089446
-0.053993437 0.028649524 -1.1570001 7088169
-0.053993437 0.033057142 -1.1570001 6498846
-0.053993437 0.03746476 -1.1570001 6628648
-0.053993441 0.042974282 -1.1570001 6301241
-0.053993441 0.047381904 -1.1570001 6497593
-0.053993441 0.05289143 -1.1570001 6564368
-0.053993441 0.05619714 -1.1570001 6629910
-0.053993441 0.10798667 -1.1570001 8141840
-0.053993441 0.11239429 -1.1570001 7944209
-0.053993441 0.11680191 -1.1570001 7879490
-0.053993441 0.12120952 -1.1570001 7880507
-0.052891541 0.13333048 -1.1570001 7421741
-0.052671161 0.13729735 -1.1570001 7552800
-0.051789634 0.14214572 -1.1570001 7619124
-0.053993445 0.1597762 -1.1570001 7024385
-0.053993445 0.17189716 -1.1570001 6763035
-0.053993445 0.17520286 -1.1570001 6763295
-0.053258851 0.22295207 -1.1570001 9131069
-0.052891545 0.22699238 -1.1570001 9327898
-0.049585827 0.22809429 -1.1570001 9196852
-0.047382019 0.23176733 -1.1570001 9261873
-0.045178212 0.23801145 -1.1570001 9654565
-0.042974398 0.24241906 -1.1570001 9589789
-0.04077059 0.24682668 -1.1570001 9590040
-0.038566779 0.2523362 -1.1570001 9982545
-0.036362972 0.25784573 -1.1570001 9523734
-0.034159161 0.26335526 -1.1570001 9196867
-0.03195535 0.26555905 -1.1570001 9393465
-0.02901694 0.26923209 -1.1570001 9589050
-0.025343923 0.2732724 -1.1570001 9458997
-0.025343925 0.27768001 -1.1570001 9394241
-0.023140114 0.28208762 -1.1570001 9655875
-0.020936305 0.28759715 -1.1570001 9786952
-0.016528687 0.29200476 -1.1570001 10051666
-0.014324876 0.29420859 -1.1570001 10115146
-0.012121068 0.29641241 -1.1570001 10049112
-0.0069788452 0.30228922 -1.1570001 10377534
-0.0033058287 0.30302382 -1.1570001 10247238
-0.0011020193 0.30632955 -1.1570001 10314579
0.0025709968 0.30816603 -1.1570001 10050623
0.0055094096 0.30853334 -1.1570001 9787702
0.078235127 0.1597762 -1.1570001 4065025
0.077133223 0.16418381 -1.1570001 3738113
0.07603132 0.16638763 -1.1570001 3934210
0.078235127 0.1818143 -1.1570001 2950913
0.082642749 0.1586743 -1.1570001 4393217
0.082642756 0.16308191 -1.1570001 4197386
0.082642756 0.16748953 -1.1570001 4065027
0.082642756 0.17079525 -1.1570001 4000001
0.083010055 0.17667207 -1.1570001 3277825
0.082642756 0.18254891 -1.1570001 2754049
0.083193704 0.18787476 -1.1570001 3410689
0.084846556 0.19283333 -1.1570001 3738881
0.084846556 0.19503716 -1.1570001 3802881
0.089254178 0.11680192 -1.1570001 5116932
0.089254178 0.12231144 -1.1570001 4985861
0.089254178 0.12892286 -1.1570001 4723969
0.087784976 0.13920733 -1.1570001 5116165
0.088519581 0.14288032 -1.1570001 5050892
0.089254178 0.14655334 -1.1570001 5051395
0.087050371 0.1597762 -1.1570001 4264193
0.087050371 0.16308191 -1.1570001 4328449
0.087050371 0.16748953 -1.1570001 4326657
0.087050371 0.17189716 -1.1570001 4261633
0.087050371 0.18401811 -1.1570001 3475713
0.087784976 0.18769112 -1.1570001 3737857
0.087784976 0.19136414 -1.1570001 4000257
0.088152274 0.19834286 -1.1570001 4525065
0.088152274 0.2027505 -1.1570001 4721176
0.089254178 0.2071581 -1.1570001 4853001
0.089254178 0.21487144 -1.1570001 4591875
0.089254178 0.21817715 -1.1570001 4852229
0.089254178 0.22148286 -1.1570001 4918532
0.092559896 0.1134962 -1.1570001 4461313
0.092559896 0.11680192 -1.1570001 4854022
0.091457985 0.12231144 -1.1570001 4855306
0.0936618 0.12892286 -1.1570001 4919553
0.092559896 0.13773811 -1.1570001 5117707
0.092192598 0.14288034 -1.1570001 5181985
0.091457985 0.14655334 -1.1570001 5181701
0.091457985 0.20275049 -1.1570001 5049893
0.091457985 0.2071581 -1.1570001 4986636
0.092008941 0.21211667 -1.1570001 4986114
0.091457985 0.21817715 -1.1570001 4983560
0.091457985 0.22148286 -1.1570001 5114370
0.098069414 0.10468097 -1.1570001 4985356
0.098069414 0.10798668 -1.1570001 4919811
0.095865607 0.1112924 -1.1570001 4723457
0.095865607 0.12892286 -1.1570001 4722945
0.096967511 0.13222858 -1.1570001 4985348
0.096967518 0.13773811 -1.1570001 5182984
0.10468085 0.093661919 -1.1570001 4984833
0.10247704 0.09696763 -1.1570001 4852738
0.10082417 0.10247716 -1.1570001 4984342
0.10027322 0.10688477 -1.1570001 4984066
0.10027322 0.13333048 -1.1570001 5051149
0.10908847 0.068318106 -1.1570001 4986893
0.10835387 0.073093027 -1.1570001 5117725
0.10688466 0.077133343 -1.1570001 4919553
0.10688466 0.082642876 -1.1570001 4919809
0.10688465 0.088152394 -1.1570001 4920328
0.10688465 0.093661919 -1.1570001 4985089
0.11349609 0.053993341 -1.1570001 4986881
0.11202689 0.056931749 -1.1570001 4986121
0.11129229 0.061706673 -1.1570001 5051139
0.11129229 0.067216203 -1.1570001 5247493
0.11790371 0.033057149 -1.1570001 4526338
0.1156999 0.038566671 -1.1570001 3870721
0.11680181 0.041872386 -1.1570001 4526849
0.1156999 0.047381911 -1.1570001 4856321
0.12451515 0.0099171484 -1.1570001 4724248
0.12231132 0.014324768 -1.1570001 5050116
0.12231132 0.016528578 -1.1570001 4985615
0.12231132 0.0220381 -1.1570001 5048849
0.12084211 0.027547626 -1.1570001 4591642
0.12010752 0.031955242 -1.1570001 4395522
0.12892276 -0.0066114236 -1.1570001 4656644
0.12671895 0.0022038152 -1.1570001 4722178
0.12671895 0.0066114347 -1.1570001 4722951
0.13333037 -0.017630471 -1.1570001 5051148
0.13333037 -0.014324756 -1.1570001 4920069
0.13112657 -0.0099171372 -1.1570001 4919553
0.13994181 -0.061706662 -1.1570001 5050372
0.13994181 -0.058400948 -1.1570001 4986115
0.137738 -0.052891426 -1.1570001 5050369
0.137738 -0.049585707 -1.1570001 5443843
0.13553418 -0.033057138 -1.1570001 5118465
0.13553418 -0.027547615 -1.1570001 5181955
0.14434943 -0.080439046 -1.1570001 5053971
0.14434943 -0.076031424 -1.1570001 5184002
0.14214562 -0.073827617 -1.1570001 5116673
0.14214562 -0.06721618 -1.1570001 5051907
0.14875706 -0.18622191 -1.1570001 2228993
0.14875706 -0.1818143 -1.1570001 2819329
0.14875706 -0.17961048 -1.1570001 2753793
0.14765514 -0.08154095 -1.1570001 5183759
0.14655323 -0.077133328 -1.1570001 5185538
0.15316468 -0.31183907 -1.1570001 2228993
0.15096086 -0.19173142 -1.1570001 1835777
0.15096086 -0.18401811 -1.1570001 2491393
0.15096086 -0.17630476 -1.1570001 2753541
0.15169547 -0.17226446 -1.1570001 2753282
0.15316467 -0.16859144 -1.1570001 2884097
0.15316467 -0.10247715 -1.1570001 5050122
0.15096085 -0.096967615 -1.1570001 5116162
0.15096085 -0.092560001 -1.1570001 5116929
0.15096085 -0.088152379 -1.1570001 5116675
0.15536849 -0.31183907 -1.1570001 2097921
0.1575723 -0.30798241 -1.1570001 2295298
0.15977611 -0.3019219 -1.1570001 3410950
0.15977611 -0.21266763 -1.1570001 984579
0.15536848 -0.16638763 -1.1570001 2949377
0.1583069 -0.16344921 -1.1570001 2949633
0.15757228 -0.15757239 -1.1570001 3081217
0.15647037 -0.15206286 -1.1570001 3343108
0.15536848 -0.14765525 -1.1570001 3539976
0.15536848 -0.14324763 -1.1570001 3606274
0.15610307 -0.13773811 -1.1570001 3606286
0.15536848 -0.13222858 -1.1570001 3803151
0.15536848 -0.12782097 -1.1570001 4000788
0.15536849 -0.12231143 -1.1570001 4065801
0.15647037 -0.1168019 -1.1570001 4132117
0.15683769 -0.11202698 -1.1570001 4656677
0.15536848 -0.10798667 -1.1570001 5049103
0.15536848 -0.10247714 -1.1570001 5050125
0.16197991 -0.30302382 -1.1570001 4265230
0.16197991 -0.24572478 -1.1570001 3541774
0.16197991 -0.24352098 -1.1570001 3737868
0.16197991 -0.21817715 -1.1570001 3213573
0.16197991 -0.21046382 -1.1570001 3873027
0.16197991 -0.20826001 -1.1570001 4731138
0.16859135 -0.27878192 -1.1570001 5187338
0.17079516 -0.27768001 -1.1570001 5384203
-0.066342965 -0.043122862 -1.161 6039297
-0.065237254 0.19571143 -1.161 8341822
-0.060814381 -0.051968575 -1.161 6171141
-0.061698951 -0.047103435 -1.1610001 6302480
-0.061920099 -0.042017147 -1.161 6499342
-0.061920099 -0.037594292 -1.161 6696221
-0.060814388 0.061919995 -1.161 6827048
-0.060814388 0.069660001 -1.161 6827561
-0.060814388 0.072977141 -1.161 7024434
-0.060814388 0.07850571 -1.161 7417141
-0.060814388 0.080717139 -1.161 7285815
-0.060814388 0.088457137 -1.161 7549219
-0.060814388 0.096197143 -1.161 7746855
-0.060814388 0.10283143 -1.161 7879953
-0.060814392 0.1846543 -1.161 7419935
-0.060814392 0.18797144 -1.161 7617321
-0.062288683 0.19202571 -1.161 7946809
-0.061920106 0.20345142 -1.161 8734530
-0.058602955 -0.046440002 -1.161 6696223
-0.058602959 -0.042017147 -1.161 7023658
-0.057497244 -0.032065716 -1.161 7156266
-0.058602963 -0.027642859 -1.161 7023658
-0.058602959 -0.022114288 -1.161 6827044
-0.058602959 -0.018797144 -1.161 6826026
-0.058602959 -0.0077400026 -1.161 6170903
-0.058602959 -0.0033171454 -1.161 6302745
-0.058602959 0.0022114259 -1.161 6630922
-0.058602959 0.0088457111 -1.161 7157014
-0.05639153 0.013268569 -1.161 7091229
-0.05639153 0.017691428 -1.161 7155240
-0.05639153 0.022114284 -1.161 6957861
-0.056944389 0.028195713 -1.161 6891302
-0.05639153 0.032065708 -1.161 6498590
-0.057497244 0.037594285 -1.161 6629690
-0.058602959 0.040911425 -1.161 6562357
-0.056391533 0.047545709 -1.161 6694195
-0.057128679 0.053442854 -1.161 6826267
-0.058602963 0.05749714 -1.161 6564410
-0.058602963 0.085140005 -1.161 7418420
-0.058602963 0.093985714 -1.161 7747115
-0.058602963 0.098408572 -1.161 7812894
-0.058602963 0.10062 -1.161 7878673
-0.057497248 0.10725429 -1.161 8142109
-0.056391533 0.11278285 -1.161 7879730
-0.056391533 0.1161 -1.161 7813958
-0.058602963 0.12715714 -1.161 7878972
-0.056391537 0.13379143 -1.161 7551537
-0.056391537 0.13710858 -1.161 7486749
-0.056391537 0.15148287 -1.161 7549217
-0.056391537 0.17691427 -1.161 6632477
-0.057865825 0.18096857 -1.161 7090978
-0.058602966 0.20455715 -1.161 8732488
-0.058602966 0.20676857 -1.161 8994889
-0.054180101 0.023219999 -1.161 6958631
-0.054180101 0.025431428 -1.161 6828074
-0.053442966 0.14263713 -1.161 7551533
-0.054180108 0.1481657 -1.161 7616563
-0.054180108 0.15258858 -1.161 7286842
-0.054180108 0.15701142 -1.161 7090485
-0.054180108 0.16475143 -1.161 6958615
-0.054180108 0.16806857 -1.161 6827821
-0.051968683 0.23109429 -1.161 9393175
-0.047545824 0.23330572 -1.161 9392693
-0.04828297 0.2362543 -1.161 9457975
-0.045334399 0.24215142 -1.161 9918226
-0.04312297 0.2465743 -1.161 9327902
-0.038700115 0.2565257 -1.161 9589541
-0.036488682 0.26315999 -1.161 9327952
-0.036488682 0.26647714 -1.161 9328187
-0.033540115 0.26795146 -1.161 9327932
-0.032065824 0.27200574 -1.161 9393727
-0.028748684 0.27311143 -1.161 9590079
-0.027642971 0.27753431 -1.161 9459015
-0.025431544 0.28306285 -1.161 9787455
-0.023220114 0.28637999 -1.161 9721414
-0.021008685 0.29080287 -1.161 9983561
-0.018797256 0.29190856 -1.161 9985362
-0.016585829 0.29633141 -1.161 10180933
-0.013268686 0.29854286 -1.161 10049355
-0.0099515431 0.3029657 -1.161 10311489
-0.0077401148 0.3073886 -1.1610001 9457964
-0.0033172579 0.30628288 -1.161 10249033
-0.0011058294 0.31181145 -1.161 8272452
0.0011055991 0.31070572 -1.161 9262653
0.0066341707 0.31291714 -1.161 9722659
0.0088455984 0.31623429 -1.161 8535074
0.082928464 0.14484857 -1.161 5117697
0.081822746 0.1481657 -1.161 4921090
0.081822746 0.15258858 -1.161 4589829
0.081822746 0.15590572 -1.161 4457990
0.089562744 0.1227343 -1.161 4920581
0.089562744 0.12715714 -1.161 4461569
0.087351315 0.13600287 -1.161 5117185
0.085877031 0.14411142 -1.161 5246721
0.086909026 0.14838685 -1.1610001 5116931
0.087351322 0.15258858 -1.1610001 4853509
0.087793596 0.15679029 -1.1610001 4263169
0.089562744 0.16254 -1.161 4263425
0.089562744 0.16806857 -1.161 4458241
0.089562744 0.17249143 -1.161 4589313
0.087351315 0.17691427 -1.161 3933953
0.087351322 0.18207429 -1.1610001 3474945
0.089562744 0.18686572 -1.161 3803393
0.089562744 0.1935 -1.161 4393218
0.088457026 0.19571143 -1.161 4327938
0.093101025 0.12273429 -1.1610001 4789513
0.092879884 0.12715714 -1.161 4657665
0.093985602 0.14484857 -1.161 5312785
0.093248457 0.14853428 -1.161 5181188
0.092511319 0.15222001 -1.161 5049861
0.091774173 0.15811713 -1.161 4198146
0.092327029 0.16309285 -1.161 4524801
0.091774173 0.16806857 -1.161 4851201
0.091774173 0.17249143 -1.161 4785409
0.091774173 0.1846543 -1.161 3998977
0.092511319 0.18834001 -1.161 4458241
0.092879884 0.19239429 -1.161 4786691
0.092879884 0.19681714 -1.161 4984071
0.093432739 0.20179287 -1.161 5181200
0.093985602 0.20787428 -1.161 5116166
0.093985602 0.21340285 -1.161 5313794
0.093985602 0.21672 -1.161 5313796
0.093985602 0.22114286 -1.161 5178882
0.097671323 0.11315143 -1.161 4656645
0.097302742 0.11720572 -1.161 4788227
0.097302742 0.12273429 -1.1610001 4593162
0.097671323 0.12789428 -1.161 4461061
0.096934177 0.14337429 -1.161 5379345
0.096197031 0.18907715 -1.161 4983300
0.097302742 0.19239429 -1.161 5180943
0.096197031 0.19681714 -1.161 5246471
0.097081609 0.20234571 -1.1610001 5509890
0.096197031 0.20787428 -1.161 5379841
0.09693417 0.21192858 -1.161 5249540
0.10283132 0.10062001 -1.161 4853770
0.10209418 0.1072543 -1.161 5049863
0.10061989 0.11278286 -1.161 4721935
0.10061989 0.11720572 -1.161 4721667
0.10061989 0.1227343 -1.161 4658196
0.10061989 0.12826285 -1.161 4527628
0.10061989 0.13158 -1.161 4985864
0.10061989 0.13710858 -1.161 5183246
0.10061989 0.14042571 -1.161 5314589
0.10946561 0.077400006 -1.161 4919041
0.10946561 0.080717146 -1.161 4919041
0.10946561 0.085140012 -1.161 4985089
0.10725418 0.091774292 -1.161 5050374
0.10725418 0.096197151 -1.161 4984833
0.11388846 0.058602862 -1.161 4985876
0.11388846 0.061920002 -1.161 5051141
0.11167704 0.072977148 -1.161 4986131
0.11831133 0.037594292 -1.161 4591873
0.11831133 0.040911432 -1.161 4722945
0.11831133 0.047545716 -1.161 4920578
0.11609989 0.053074289 -1.161 4986881
0.12494562 0.013268577 -1.161 4985864
0.12494562 0.017691435 -1.161 4985101
0.12494562 0.022114292 -1.161 5048842
0.12273418 0.028748577 -1.161 4590605
0.12162846 0.033171434 -1.161 4394497
0.12052275 0.037594292 -1.161 5115649
0.12052275 0.042017147 -1.161 5115400
0.12936847 -0.0022114229 -1.161 4788482
0.12936847 0.0022114341 -1.161 4852994
0.12881561 0.0082928631 -1.161 4985361
0.12715703 0.013268577 -1.161 4921349
0.13379133 -0.012162851 -1.161 4985857
0.13379133 -0.0088457083 -1.161 5051393
0.13157989 0.0055285771 -1.161 5182730
0.13821419 -0.04643999 -1.161 5246980
0.13821419 -0.042017136 -1.161 5246984
0.13821419 -0.037594281 -1.161 5249037
0.13821419 -0.033171423 -1.161 5249795
0.13732962 -0.027642854 -1.1610001 5247748
0.13600276 -0.022114281 -1.161 5116172
0.13600276 -0.017691424 -1.161 5313287
0.14484847 -0.072977133 -1.161 5184257
0.14484847 -0.067448571 -1.161 5118978
0.14337419 -0.062288567 -1.161 5118723
0.1418999 -0.057128567 -1.161 5118722
0.14116275 -0.053442851 -1.161 5118465
0.14042561 -0.047545709 -1.161 5181958
0.14042561 -0.042017136 -1.161 5313551
0.14042561 -0.037594281 -1.161 5249817
0.14042561 -0.033171423 -1.161 5052678
0.14927132 -0.080717131 -1.161 5182985
0.14927132 -0.077399991 -1.161 5185794
0.14705989 -0.072977133 -1.161 5249796
0.14705989 -0.068554275 -1.161 5183754
0.15369421 -0.31733999 -1.161 2230019
0.1536942 -0.19239429 -1.161 2032641
0.15258849 -0.18797144 -1.161 1967105
0.15280963 -0.18200056 -1.1610001 2687489
0.1536942 -0.17691427 -1.161 2621697
0.1536942 -0.17138572 -1.161 2818561
0.15369418 -0.097302847 -1.161 5115396
0.15701133 -0.31734002 -1.1610001 2099715
0.15811704 -0.31291714 -1.161 2032641
0.15590563 -0.19792286 -1.161 2556674
0.15590563 -0.18686572 -1.161 2359809
0.15590563 -0.18244287 -1.161 2294025
0.15701133 -0.17691427 -1.161 2556423
0.15701133 -0.17249143 -1.161 2818565
0.1573799 -0.16843715 -1.161 3145987
0.15811703 -0.1481657 -1.161 3540494
0.15811704 -0.14263713 -1.161 3541250
0.15811703 -0.13600287 -1.161 3606286
0.15811703 -0.13268572 -1.161 3671567
0.15811703 -0.12826285 -1.161 3935266
0.15811704 -0.12273429 -1.161 4132879
0.15811703 -0.11831143 -1.161 4001551
0.15756418 -0.10670142 -1.161 4983825
0.15737988 -0.10135714 -1.161 5049614
0.16032848 -0.31181145 -1.161 1967618
0.1629822 -0.30760977 -1.1610001 4069909
0.16253991 -0.21561429 -1.161 3148298
0.16253991 -0.21340285 -1.161 3083526
0.16475134 -0.20787428 -1.161 5384454
0.16475134 -0.20455715 -1.161 5188104
0.16032846 -0.16696286 -1.161 3277313
0.16165532 -0.16209772 -1.1610001 2818817
0.16143419 -0.15701142 -1.161 3146497
0.16032846 -0.15258858 -1.161 3277573
0.16032846 -0.14042571 -1.161 3410945
0.16032846 -0.13710858 -1.161 3410438
0.16032846 -0.13268572 -1.161 3605770
0.16032846 -0.12936857 -1.161 3672339
0.16032846 -0.12273429 -1.161 4132365
0.16032846 -0.11720571 -1.161 4068630
0.16032846 -0.11278284 -1.161 4526622
-0.070140116 0.10576667 -1.169 7683099
-0.066201694 -0.046230167 -1.1650002 6170885
-0.066571534 -0.041052386 -1.1650001 5842444
-0.066571534 -0.037723813 -1.1650001 6170396
-0.06672518 -0.032248575 -1.1676667 6302251
-0.06568677 -0.022266671 -1.169 6629903
-0.06568677 0.053439997 -1.169 6763017
-0.06568677 0.062346663 -1.169 6764053
-0.06568677 0.065686665 -1.169 6370330
-0.06568677 0.07236667 -1.169 7155237
-0.06568677 0.077933334 -1.169 7351080
-0.06568677 0.08127334 -1.169 7353116
-0.065686777 0.087953337 -1.169 7353866
-0.066429004 0.10279779 -1.169 7485988
-0.06680011 0.10687999 -1.169 8010513
-0.065686777 0.11356001 -1.169 7944485
-0.065686777 0.17924666 -1.169 7092763
-0.065686777 0.18258667 -1.169 7222555
-0.066131063 0.18727288 -1.1670001 7682594
-0.065462023 0.19305715 -1.1650001 8078646
-0.0655744 0.20227811 -1.1670001 8735038
-0.065686777 0.20596667 -1.169 9193296
-0.062133435 -0.033285718 -1.1650001 6827027
-0.062205818 -0.027768575 -1.1663334 6956312
-0.062242009 -0.022228574 -1.1670001 6826772
-0.062294386 -0.017797144 -1.1680001 6826522
-0.062569439 -0.012692004 -1.169 6170906
-0.061632957 -0.0072166696 -1.1660001 6104853
-0.061835978 -0.0025927015 -1.1663334 6302743
-0.062242005 0.0022228546 -1.1670001 6564874
-0.06199839 0.0073319981 -1.1666001 6958857
-0.061023913 0.013314283 -1.1650001 7156509
-0.061023913 0.017752381 -1.1650001 7091236
-0.062346764 0.022266665 -1.169 7352349
-0.062040292 0.027348381 -1.1674001 7285275
-0.061975654 0.032286663 -1.169 6957344
-0.06190582 0.038179997 -1.1676668 6498354
-0.061233431 0.042306665 -1.169 6497583
-0.061975658 0.04713111 -1.169 6565666
-0.06227693 0.052265711 -1.1676668 6565393
-0.062242009 0.057794284 -1.1670001 6564384
-0.063242964 0.062133331 -1.1650001 6762271
-0.063242972 0.067680955 -1.1650002 6762784
-0.063351534 0.073352382 -1.1670001 7089452
-0.063242964 0.07766667 -1.1650001 7351340
-0.062648043 0.082662545 -1.1676668 7286050
-0.062575676 0.086270802 -1.1663334 7352081
-0.062485628 0.09272401 -1.1674001 7616024
-0.062575676 0.09812095 -1.1663334 7681582
-0.062503293 0.10170636 -1.1650002 7682850
-0.062187724 0.10660667 -1.166 8010519
-0.062311854 0.11238127 -1.1683334 7945007
-0.061975658 0.11764222 -1.169 7880500
-0.061233435 0.12691998 -1.169 7879722
-0.061233439 0.13471334 -1.169 7355431
-0.061233439 0.13805333 -1.169 7223326
-0.062346775 0.14362001 -1.169 7420711
-0.061233439 0.14695999 -1.169 7486005
-0.062124111 0.15208133 -1.169 7354400
-0.061975662 0.15772223 -1.169 7483671
-0.061233439 0.16254666 -1.169 7220510
-0.061233439 0.167 -1.169 7155234
-0.061790105 0.17312333 -1.169 7155476
-0.062242012 0.17782858 -1.1670001 6960150
-0.062187728 0.18211716 -1.1660001 7156508
-0.063242979 0.18750954 -1.1650002 7617057
-0.063242972 0.20082383 -1.1650001 8537399
-0.062133443 0.20637144 -1.1650001 8865862
-0.062346779 0.21487333 -1.169 8802367
-0.061233442 0.21709999 -1.169 8933683
-0.058804866 0.013314283 -1.1650001 7090743
-0.058804866 0.017752381 -1.1650001 7090484
-0.058804866 0.022190476 -1.1650001 7219749
-0.058804866 0.026628571 -1.1650001 7023140
-0.058804866 0.033285711 -1.1650001 6564139
-0.058804866 0.036614284 -1.1650001 6564424
-0.05880487 0.043271426 -1.1650001 6433331
-0.05880487 0.047709521 -1.1650002 6629166
-0.05880487 0.052147619 -1.1650001 6760740
-0.05880487 0.10984286 -1.1650001 8143933
-0.05880487 0.11317144 -1.1650001 7880020
-0.05880487 0.11760953 -1.1650001 7880259
-0.05880487 0.12204762 -1.1650001 7880499
-0.05880487 0.12759525 -1.1650001 7748668
-0.058905821 0.13337335 -1.1670001 7487034
-0.058804873 0.13758096 -1.1650001 7355944
-0.057796299 0.14226286 -1.1670001 7420457
-0.057762653 0.14773431 -1.1663334 7550248
-0.058065191 0.15348414 -1.1650002 7352855
-0.057745822 0.15768859 -1.166 7221022
-0.057745825 0.16213049 -1.1660001 7155731
-0.057796299 0.16671428 -1.1670001 6958115
-0.057795029 0.1722689 -1.1670001 6893589
-0.058804873 0.17752382 -1.1650001 6829076
-0.058804873 0.2097 -1.1650001 8865866
-0.058804873 0.21302858 -1.1650001 8736071
-0.058905825 0.21783811 -1.1670001 8934712
-0.059006777 0.22266668 -1.169 8933951
-0.056780115 0.22823334 -1.169 9192745
-0.054366779 0.14534763 -1.1650001 7485235
-0.054366779 0.1631 -1.1650001 7023628
-0.05232678 0.23491335 -1.169 9393447
-0.053395353 0.23805048 -1.168 9196076
-0.05010011 0.24270667 -1.169 9589545
-0.049928684 0.23410954 -1.1650001 9392950
-0.049928684 0.23854764 -1.1650001 9393458
-0.04770964 0.24187621 -1.1650001 9981729
-0.046721064 0.24694952 -1.1680001 9393182
-0.043271542 0.24964288 -1.1650001 9460520
-0.042236302 0.25340572 -1.1670001 9720631
-0.041193448 0.25829333 -1.169 9522738
-0.041052494 0.26184762 -1.1650001 9523511
-0.042271543 0.26697242 -1.1680001 9392941
-0.041193448 0.27276665 -1.169 9458744
-0.041193448 0.27833331 -1.169 9589328
-0.038833447 0.26184762 -1.1650001 9458748
-0.038278684 0.26795003 -1.1650001 9459253
-0.037757255 0.2731781 -1.166 9393222
-0.038224556 0.27796221 -1.169 9524049
-0.034395352 0.27294287 -1.1650001 9196356
-0.033372495 0.27809617 -1.168 9589829
-0.030060116 0.28167334 -1.169 9721411
-0.029957259 0.27738094 -1.1650001 9590083
-0.027738212 0.28292859 -1.1650001 9787200
-0.027030276 0.28695589 -1.1663334 9918006
-0.025606783 0.29169333 -1.169 9852217
-0.025606783 0.29503334 -1.169 10114362
-0.023300117 0.28958574 -1.1650001 9786953
-0.022190593 0.29291433 -1.1650001 10048582
-0.0224605 0.29729697 -1.1674 10244165
-0.021153448 0.30282667 -1.169 8993809
-0.018862022 0.29735237 -1.1650001 10312258
-0.017784879 0.30230859 -1.1670001 9720094
-0.017784879 0.30564287 -1.1670001 7807518
-0.013684244 0.30216032 -1.1650002 10114634
-0.013314402 0.30622858 -1.1650001 9057588
-0.003328687 0.30955717 -1.1650001 10247225
-0.0033401158 0.31284669 -1.169 8729128
-0.0022248777 0.31564379 -1.1670001 7350839
0.0022189324 0.31399527 -1.1650001 8342069
0.0022189321 0.3173238 -1.1650001 7744806
0.0055475035 0.3173238 -1.1650001 8141597
0.089871325 0.17752382 -1.1650001 4261633
0.089871325 0.1808524 -1.1650001 3933953
0.094309419 0.15422381 -1.1650001 5115398
0.093569733 0.15718256 -1.1650002 4656388
0.094309419 0.16199049 -1.1650001 4459009
0.094309419 0.16864763 -1.1650001 5244417
0.094309419 0.17308572 -1.1650001 4982017
0.093199894 0.17752382 -1.1650001 4523521
0.093199894 0.18196192 -1.1650001 4195585
0.094309419 0.18640001 -1.1650001 4523009
0.097859904 0.14801049 -1.1650001 5313545
0.097637989 0.15311429 -1.1650001 5050638
0.097722746 0.15768668 -1.166 4657419
0.097637989 0.16199049 -1.1650001 4329227
0.097637989 0.16753811 -1.1650001 4918277
0.097637989 0.17308572 -1.1650001 5049347
0.097637989 0.17752382 -1.1650001 4852993
0.097722746 0.18211715 -1.166 4721921
0.097859889 0.18706572 -1.1650001 4983555
0.098747514 0.19749525 -1.1650001 5378055
0.098747514 0.20304286 -1.1650001 5641986
0.098747514 0.20859048 -1.1650001 5645569
0.098747514 0.21413811 -1.1650001 5179920
0.097637989 0.21746668 -1.1650001 5775121
0.097637989 0.22190478 -1.1650001 8342810
0.098118313 0.2262308 -1.1663334 10582069
0.10318561 0.10984287 -1.1650001 4852998
0.10318561 0.11317144 -1.1650001 4721672
0.10318561 0.11760954 -1.1650001 4589825
0.10318561 0.12204763 -1.1650001 4788997
0.10318562 0.12759525 -1.1650002 4657419
0.10318561 0.13314286 -1.1650001 5050904
0.10318561 0.13758096 -1.1650001 5249039
0.10244593 0.14238891 -1.1650002 5379357
0.10199589 0.14732401 -1.1666001 5378575
0.10264923 0.152972 -1.169 5246999
0.10242657 0.15809333 -1.169 4854549
0.10242656 0.16254666 -1.169 4658720
0.10242656 0.167 -1.169 4921102
0.10242657 0.17256665 -1.1690001 5049861
0.10242656 0.17813334 -1.169 5049345
0.10233989 0.18242955 -1.1680001 4984577
0.10206523 0.18745048 -1.1674001 5115910
0.10251056 0.19278686 -1.1674 5378590
0.10242657 0.19817334 -1.169 5510661
0.10225322 0.20228001 -1.1670001 5774594
0.10233989 0.20690382 -1.1680001 5316358
0.10231101 0.21240287 -1.1676667 7020063
0.10225322 0.21784 -1.1670001 9791053
0.10225322 0.22228572 -1.1670001 10911845
0.10207608 0.22634286 -1.1650001 11370323
0.10984275 0.083214298 -1.1650001 4985089
0.10984275 0.088761918 -1.1650001 4985104
0.10984275 0.094309539 -1.1650001 5050881
0.10651418 0.098747633 -1.1650001 4853505
0.10651418 0.1020762 -1.1650001 4722946
0.10660656 0.10660668 -1.166 4722442
0.10681958 0.11238128 -1.1683335 4393732
0.10651418 0.11760954 -1.1650001 4393217
0.1076237 0.12204763 -1.1650001 4788738
0.1076237 0.12759525 -1.1650001 4919812
0.1076237 0.13314286 -1.1650001 5379099
0.10651418 0.13758096 -1.1650001 5315854
0.10678941 0.14238572 -1.168 5445894
0.10687989 0.14695999 -1.169 5510402
0.10687989 0.15252666 -1.1690001 5378053
0.10576656 0.15809333 -1.169 5050370
0.10576656 0.16254666 -1.169 4855554
0.10576656 0.16588667 -1.169 4986370
0.10687988 0.17368001 -1.169 5378817
0.10687989 0.17813334 -1.169 5378561
0.10687989 0.18258668 -1.169 5313025
0.10650878 0.1866689 -1.169 5313026
0.10687989 0.20262668 -1.169 5775641
0.10687988 0.20708001 -1.169 8405285
0.1068799 0.21264669 -1.1690001 10385235
0.10687988 0.21821333 -1.169 11502443
0.10650878 0.22229557 -1.169 11237730
0.11428086 0.067680962 -1.1650002 5116673
0.11467323 0.07348001 -1.169 4855041
0.11336752 0.077800013 -1.1670001 4919809
0.11306054 0.081922866 -1.1676668 4985089
0.11355989 0.086840011 -1.169 4985858
0.11170434 0.092406683 -1.169 5116423
0.11096212 0.098344453 -1.169 4789249
0.11096212 0.10205557 -1.169 4460291
0.11021989 0.10688001 -1.169 4263459
0.11021989 0.11244667 -1.169 4131851
0.11133323 0.11801334 -1.169 4131585
0.11355989 0.12246668 -1.169 4460033
0.11326028 0.12749885 -1.1682 4722180
0.11355989 0.13248667 -1.169 5049611
0.11096212 0.13842446 -1.169 5447684
0.11021989 0.14250667 -1.169 5578241
0.11021989 0.14584666 -1.169 5510658
0.11021989 0.1503 -1.169 5577730
0.11021989 0.18370001 -1.169 5708033
0.11021989 0.20708001 -1.169 10452822
0.11021989 0.21042001 -1.169 11173718
0.11871894 0.053257149 -1.1650001 5052673
0.11781323 0.057794292 -1.1670001 4987141
0.11781323 0.062240001 -1.1670001 5051139
0.11764212 0.0664289 -1.169 5051913
0.1168999 0.076820008 -1.169 4722945
0.11689989 0.12358001 -1.169 4722690
0.12315704 0.034395244 -1.1650001 4328193
0.12315704 0.037723813 -1.1650001 4917762
0.12336847 0.042236194 -1.1670001 4984590
0.12199476 0.04732972 -1.1666001 4985876
0.12252314 0.052698862 -1.1674 5117954
0.12135323 0.05789334 -1.169 5182985
0.12135323 0.061233334 -1.169 5444359
0.12981419 0.013314292 -1.1650001 4920840
0.12759514 0.017752388 -1.1650001 4852487
0.12759514 0.022190483 -1.1650001 5048579
0.12648563 0.027738104 -1.1650001 4853005
0.12681228 0.033372387 -1.1680001 4394754
0.12691988 0.037853334 -1.169 4786945
0.12580656 0.042306673 -1.169 4985096
0.13292658 -0.0062936461 -1.1663334 4985601
0.13337325 -0.0022228514 -1.1670001 5052417
0.13337325 0.002222863 -1.1670001 5118211
0.13337325 0.0077781021 -1.1670001 5379612
0.1330777 0.012232704 -1.1676668 5315091
0.13137324 0.017813338 -1.169 4854276
0.1302599 0.022266673 -1.169 5114115
0.1302599 0.026720006 -1.169 5115401
0.13025992 0.032286674 -1.169 4918275
0.13869038 -0.022190472 -1.1650001 5313556
0.13869038 -0.017752377 -1.1650001 5640722
0.13799325 -0.012663805 -1.1666001 5250574
0.13678372 -0.0077818995 -1.1676668 5249537
0.14312847 -0.052147616 -1.1650001 5184001
0.14312847 -0.047709517 -1.1650002 5182724
0.14312847 -0.042161897 -1.1650001 5444365
0.14312847 -0.037723802 -1.1650001 5380371
0.14329229 -0.032210473 -1.1663334 5052438
0.14199364 -0.027330853 -1.1666001 5510408
0.14139323 -0.022266662 -1.169 5248029
0.14139323 -0.017813327 -1.169 5444381
0.14139323 -0.012246661 -1.169 5316396
0.14978562 -0.073228568 -1.1650001 5249031
0.14923085 -0.067126185 -1.1650001 5183758
0.14682689 -0.061763488 -1.1650002 5379857
0.14645705 -0.057695232 -1.1650001 5576964
0.14698294 -0.052698851 -1.1674001 5315073
0.14643781 -0.047329713 -1.1666001 5117187
0.14625609 -0.042581264 -1.1663334 5182218
0.14671038 -0.037788566 -1.1670001 5119241
0.14627846 -0.032813802 -1.168 5119006
0.14584656 -0.027833328 -1.169 5577243
0.15422373 -0.32287145 -1.1650001 2163969
0.15422371 -0.093199998 -1.1650001 5247233
0.15366054 -0.087752692 -1.1663334 5247492
0.15337895 -0.082245708 -1.1670001 5248267
0.15252656 -0.077933326 -1.169 5185030
0.15252656 -0.072366662 -1.169 5248776
0.15252656 -0.066799991 -1.169 5248776
0.15104212 -0.062717773 -1.169 5312803
0.15141322 -0.057893328 -1.169 5378315
0.15029989 -0.053439993 -1.169 5315073
0.15809324 -0.33066002 -1.169 2492685
0.15782279 -0.3267619 -1.1670001 2492688
0.1575523 -0.32287145 -1.1650001 2296069
0.15920658 -0.20151334 -1.169 2425857
0.15697992 -0.19706 -1.169 2622209
0.15782468 -0.19338857 -1.1670001 2425601
0.15810706 -0.18806431 -1.1650001 2228737
0.15866183 -0.18196192 -1.1650001 2229017
0.15768848 -0.097720943 -1.1660001 5115417
0.15740228 -0.09288238 -1.168 5313036
0.16254658 -0.33066002 -1.169 3935751
0.16226849 -0.3267619 -1.1670001 3608331
0.1619904 -0.32176191 -1.1650001 3412744
0.1619904 -0.3173238 -1.1650001 2953990
0.16309991 -0.31288576 -1.1650001 3610371
0.16088088 -0.20304286 -1.1650001 3017736
0.16143325 -0.19038001 -1.169 2490881
0.16199136 -0.18645684 -1.1676668 2163201
0.1622704 -0.18227431 -1.1670001 2294536
0.1622704 -0.17782858 -1.1670001 2556675
0.1621304 -0.17323524 -1.166 2818562
0.16236024 -0.16901748 -1.1650002 3277313
0.1630999 -0.15311429 -1.1650001 3212036
0.16199039 -0.14756668 -1.1650001 3409928
0.16236024 -0.14238891 -1.1650002 3475457
0.1630999 -0.13758096 -1.1650001 3475457
0.1630999 -0.13314286 -1.1650001 3539973
0.16254514 -0.12759525 -1.1650001 4000528
0.1630999 -0.12204761 -1.1650001 3868938
0.1630999 -0.11760952 -1.1650001 4066069
0.1630999 -0.11317143 -1.1650001 4459538
0.16217706 -0.10774571 -1.1663334 4918548
0.16227038 -0.10225143 -1.1670001 5114642
0.16143323 -0.097973324 -1.169 5050138
0.16588658 -0.33066002 -1.169 5642244
0.16560277 -0.3267619 -1.1670001 4986631
0.16531897 -0.32176191 -1.1650001 4790789
0.16531897 -0.3173238 -1.1650001 5381382
0.16531897 -0.31288576 -1.1650001 5380112
0.16531897 -0.22079526 -1.1650001 4988930
0.1667161 -0.21784 -1.1670001 4791810
0.16699554 -0.21279943 -1.1674 5448708
0.16811325 -0.20819335 -1.169 5646604
0.16588658 -0.17702 -1.169 2621953
0.16588658 -0.17145333 -1.169 2884353
0.16560276 -0.16671619 -1.1670001 2622465
0.16625038 -0.16180478 -1.1663334 2819073
0.16671608 -0.15782286 -1.1670001 3343105
0.16655019 -0.15276171 -1.1674001 3146505
0.16643958 -0.14642255 -1.1676668 3147268
0.16531895 -0.14201906 -1.1650001 3409665
0.16531895 -0.13758096 -1.1650001 3606023
0.16625039 -0.13366637 -1.1663334 3474438
0.16531895 -0.12759525 -1.1650002 3802632
0.16588657 -0.12246666 -1.169 3933703
0.16588657 -0.11801333 -1.169 4130316
0.17033991 -0.21153334 -1.169 6170118
-0.070380114 -0.010054289 -1.1730001 6434059
-0.070380114 0.0033514258 -1.1730001 6565403
-0.070380121 0.10836286 -1.1730001 7748370
-0.071124889 0.11208668 -1.1730001 7879215
-0.071497262 0.11506572 -1.1730001 7945004
-0.070380121 0.18656288 -1.1730001 7879712
-0.065911539 -0.026811434 -1.1730001 6694933
-0.068145826 -0.021225721 -1.1730001 6563086
-0.066656306 -0.018246671 -1.1730001 6498314
-0.066470109 -0.011730004 -1.1730001 6105617
-0.065911539 -0.0055857175 -1.1730001 6236177
-0.065911539 -0.0033514316 -1.1730001 6301455
-0.066656306 0.0026066641 -1.1730001 6499341
-0.065911539 0.0067028543 -1.1730001 6761477
-0.065911539 0.01675714 -1.1730001 7287322
-0.065911539 0.048037142 -1.1730001 6500890
-0.065911539 0.050271429 -1.1730001 6631951
-0.065911539 0.058091428 -1.1730001 6828557
-0.065911539 0.068145722 -1.1730001 6763036
-0.067028686 0.073731437 -1.1730001 7154981
-0.068145826 0.078199998 -1.1730001 7352356
-0.065911539 0.08378572 -1.1730001 7353363
-0.065911546 0.086020008 -1.1730001 7353866
-0.065911546 0.092722863 -1.1730001 7484441
-0.065911546 0.098308578 -1.1730001 7550257
-0.068145834 0.10166001 -1.1730001 7288618
-0.067401074 0.11134192 -1.1730001 7879194
-0.067401074 0.11655524 -1.1730001 7879203
-0.065911546 0.13740857 -1.1730001 7419918
-0.065911546 0.14411144 -1.1730001 7355170
-0.065911546 0.14634572 -1.1730001 7354925
-0.065911546 0.15193143 -1.1730001 7223585
-0.065911546 0.15751716 -1.1730001 7288339
-0.067028694 0.17762573 -1.1730001 7157275
-0.068145834 0.18321145 -1.1730001 7419677
-0.068145834 0.18879716 -1.1730001 7814434
-0.068145834 0.19214858 -1.1730001 8013358
-0.068145834 0.19661716 -1.1730001 8276295
-0.068145834 0.20443715 -1.1730001 8800331
-0.063677251 -0.0078200027 -1.1730001 6170130
-0.063677251 -0.0011171458 -1.1730001 6433811
-0.063677251 0.01228857 -1.1730001 7286793
-0.063677251 0.017874284 -1.1730001 7157011
-0.063677251 0.033514284 -1.1730001 6629662
-0.063677251 0.036865715 -1.1730001 6433578
-0.063677251 0.04245143 -1.1730001 6301482
-0.063677251 0.045802854 -1.1730001 6434087
-0.063677259 0.11953429 -1.1730001 7814957
-0.062187735 0.12325811 -1.1730001 7880236
-0.063677259 0.12623715 -1.1730001 7748898
-0.061442975 0.13182287 -1.1730001 7618353
-0.063677259 0.13740858 -1.1730001 7289110
-0.062560119 0.14187714 -1.1730001 7354143
-0.063677259 0.14746287 -1.1730001 7354946
-0.063677259 0.15751716 -1.1730001 7353371
-0.063677259 0.16310287 -1.1730001 7155237
-0.063677259 0.16757143 -1.1730001 6958623
-0.063677259 0.17204002 -1.1730001 7089443
-0.063677259 0.20890573 -1.1730001 9194567
-0.061442975 0.21225716 -1.1730001 8670279
-0.063677259 0.21784288 -1.1730001 9064745
-0.062560119 0.22231147 -1.1730002 8933929
-0.062560119 0.22678001 -1.1730001 8802874
-0.056974407 0.23795144 -1.1730001 9062719
-0.056974407 0.24465431 -1.1730001 9064250
-0.05474012 0.23348287 -1.1730001 9261313
-0.05474012 0.23571716 -1.1730001 9195289
-0.053622976 0.24353716 -1.1730001 9195805
-0.051016312 0.24763334 -1.1730001 9196351
-0.046547737 0.25210196 -1.1730001 9262404
-0.045802973 0.25582576 -1.1730001 9327683
-0.045802973 0.2681143 -1.1730001 9327185
-0.045802973 0.27146575 -1.1730001 9327436
-0.043568693 0.25806001 -1.1730001 9457722
-0.043568693 0.2625286 -1.1730001 9523003
-0.036865834 0.2804029 -1.1730001 9655376
-0.031280119 0.28375429 -1.1730001 9787198
-0.030162975 0.28710574 -1.1730001 10116154
-0.025694402 0.29827717 -1.1730001 10372144
-0.025694402 0.30051145 -1.1730001 8925991
0.10836275 0.15863431 -1.1730001 5181700
0.10836275 0.16310287 -1.1730001 4986113
0.107618 0.16794382 -1.1730001 5051394
0.10724561 0.17092286 -1.1730001 5182211
0.10836275 0.18879716 -1.1730001 5508355
0.10687324 0.1917762 -1.1730001 5444102
0.10668704 0.19829287 -1.1730001 5511432
0.11283132 0.09272287 -1.1730001 5247750
0.11283132 0.097191446 -1.1730001 4985601
0.11283132 0.1038943 -1.1730001 4197379
0.11283132 0.10724573 -1.1730001 4000787
0.11283132 0.1117143 -1.1730001 4066312
0.11283132 0.11506573 -1.1730001 3934978
0.11283132 0.13740857 -1.1730001 5380361
0.11283132 0.14299428 -1.1730001 5709313
0.11208656 0.14783525 -1.1730001 5512194
0.11208656 0.15230381 -1.1730001 5574913
0.11059704 0.15751716 -1.1730001 5444613
0.11059704 0.16310287 -1.1730001 5183745
0.11059704 0.16645429 -1.1730001 5250561
0.1113418 0.1724124 -1.1730001 5576193
0.11115561 0.17818429 -1.1730001 5706753
0.11208656 0.18283908 -1.1730001 5838341
0.11059704 0.18768002 -1.1730001 5708547
0.1113418 0.20369241 -1.1730001 9330782
0.11953419 0.06814573 -1.1730001 4986387
0.11819362 0.072614305 -1.1730002 4855555
0.11841704 0.078200005 -1.1730001 4722945
0.11618276 0.08266858 -1.1730001 4855041
0.11729989 0.087137155 -1.1730001 4854785
0.11506561 0.090488583 -1.1730001 4920577
0.11506561 0.099425733 -1.1730001 4394241
0.11506561 0.10166002 -1.1730001 4131073
0.11562418 0.11785859 -1.1730001 4196353
0.11878941 0.12251335 -1.1730001 4525829
0.11841703 0.12735429 -1.1730001 4723201
0.11804465 0.1314505 -1.1730001 4985093
0.11506561 0.13740858 -1.1730001 5379080
0.12400277 0.058091436 -1.1730001 5117457
0.12325801 0.062932394 -1.1730001 5116164
0.12176847 0.065911442 -1.1730001 4985606
0.12847133 0.042451441 -1.1730001 4920065
0.12623705 0.046920005 -1.1730001 4985361
0.12679562 0.05194715 -1.1730001 5182466
0.1329399 0.021225723 -1.1730001 5246723
0.1329399 0.031280011 -1.1730001 5181698
0.13070562 0.037982866 -1.1730001 4787713
0.13070562 0.041334298 -1.1730001 4918785
0.13740847 -0.0022342799 -1.1730001 5316097
0.13740847 0.002234292 -1.1730001 5315332
0.13740847 0.0078200055 -1.1730001 5446928
0.13629134 0.011171435 -1.1730001 5577233
0.14411134 -0.022342853 -1.1730001 5248020
0.14411134 -0.01787428 -1.1730001 5248531
0.14411134 -0.012288567 -1.1730001 5315609
0.14857991 -0.041334283 -1.1730001 5117958
0.14857991 -0.031279996 -1.1730001 5250331
0.14783515 -0.026439043 -1.1730001 5247752
0.14634562 -0.022342853 -1.1730001 5116683
0.14634562 -0.016757138 -1.1730001 5379080
0.14634562 -0.014522851 -1.1730001 5512711
0.15304849 -0.061442856 -1.1730001 5312799
0.15248992 -0.051947139 -1.1730001 5119233
0.15193133 -0.046919994 -1.1730001 5119745
0.15081419 -0.04356857 -1.1730001 5119489
0.15081419 -0.034631424 -1.1730001 5184772
0.15975136 -0.34631431 -1.1730001 2362881
0.15826184 -0.33700484 -1.1730001 2557700
0.15863422 -0.33402574 -1.1730001 2557959
0.15975136 -0.19885144 -1.1730001 2557185
0.15975134 -0.091605715 -1.1730001 5050891
0.1567723 -0.086764768 -1.1730001 5509384
0.15751706 -0.082668565 -1.1730001 5314056
0.15639991 -0.07819999 -1.1730001 5182731
0.15584134 -0.07317286 -1.1730001 5379078
0.15528277 -0.067028575 -1.1730001 5183234
0.15528277 -0.06256 -1.1730001 5181703
0.15528277 -0.058091424 -1.1730001 5247747
0.15528277 -0.053622853 -1.1730001 5381377
0.16310278 -0.33626002 -1.1730001 3542274
0.16310278 -0.33402574 -1.1730001 3739139
0.16198564 -0.19326572 -1.1730001 2884353
0.16421992 -0.18879716 -1.1730001 2228993
0.1642199 -0.099425718 -1.1730001 5049873
0.16198562 -0.094957143 -1.1730001 5116698
0.1664542 -0.33626002 -1.1730001 4987393
0.16757134 -0.3329086 -1.1730001 5315074
0.16868849 -0.32955718 -1.1730001 5120007
0.1664542 -0.25247431 -1.1730001 3607044
0.16719897 -0.24763334 -1.1730001 4265478
0.1664542 -0.24465431 -1.1730001 4465158
0.1664542 -0.18321145 -1.1730001 2687233
0.16719897 -0.17762572 -1.1730001 2490625
0.16868849 -0.17204002 -1.1730001 2753281
0.16868848 -0.16757143 -1.1730001 2360577
0.16868848 -0.16422001 -1.1730001 2491393
0.16868848 -0.15081429 -1.1730001 3015706
0.16868848 -0.14858001 -1.1730001 3015949
0.16868848 -0.14299428 -1.1730001 3278593
0.16868848 -0.13852572 -1.1730001 3409421
0.16868848 -0.13182287 -1.1730001 3343361
0.16868848 -0.12735429 -1.1730001 3933956
0.16868848 -0.12288572 -1.1730001 3867908
0.16757132 -0.1173 -1.1730001 4131081
0.16645418 -0.11283143 -1.1730001 4590858
0.17092277 -0.21560858 -1.1730001 5580038
0.17092276 -0.1463457 -1.1730001 3081985
0.17092276 -0.14411142 -1.1730001 3213057
0.17092276 -0.13517429 -1.1730001 3343878
0.17092276 -0.13293999 -1.1730001 3147010
-0.075103916 -0.010088575 -1.177 6298152
-0.070620105 -0.01681429 -1.177 6564610
-0.071367413 -0.012330479 -1.177 6366727
-0.070620105 -0.0067257178 -1.177 6105870
-0.070620105 -0.0033628603 -1.177 6238739
-0.070620105 0.0011209493 -1.177 6499615
-0.070620112 0.17711048 -1.177 7222565
-0.070620112 0.18271527 -1.177 7550751
-0.071741067 0.18832001 -1.177 7946528
