# .PCD v0.7 - Point Cloud Data file format
VERSION 0.7
FIELDS x y z rgba
SIZE 4 4 4 4
TYPE F F F U
COUNT 1 1 1 1
WIDTH 1181
HEIGHT 1
VIEWPOINT 0 0 0 1 0 0 0
POINTS 1181
DATA ascii
0.01156192 -0.31217146 1.2140001 4664113
0.011561919 -0.30754668 1.2140001 4796224
0.012245728 -0.30249181 1.2132002 4928330
0.012681918 -0.29747874 1.2106668 5124926
0.012682189 -0.29234749 1.2105716 5321283
0.011933346 -0.28757274 1.2126669 5453608
0.011561918 -0.28211051 1.2140001 5584941
0.012718108 -0.27864194 1.2140001 5847359
0.0069371606 -0.3676686 1.2140001 3021060
0.0069371602 -0.36304384 1.2140001 3416069
0.0069371597 -0.35841906 1.2140001 3482122
0.0069371597 -0.35263813 1.2140002 3809561
0.0069371597 -0.34685719 1.2140001 3876121
0.0069371592 -0.34223244 1.2140001 3874855
0.0069371592 -0.33760762 1.2140001 3875138
0.0069371583 -0.3329829 1.2140001 4269617
0.0069371583 -0.32835811 1.2140001 4269596
0.0069371578 -0.32257718 1.2140002 4139817
0.0069371583 -0.31679624 1.2140001 5057317
0.0069371574 -0.31217146 1.2140001 4860975
0.0069371574 -0.30754668 1.2140001 4730433
0.0069371569 -0.30292192 1.2140001 4927819
0.0069371569 -0.29829717 1.2140001 5123628
0.006695251 -0.29259166 1.2124001 5190192
0.0071630613 -0.28723776 1.2132001 5322023
0.0069371564 -0.28326669 1.2140001 5387821
0.0023123974 -0.37113717 1.2140001 3215875
0.0023123971 -0.36766857 1.2140001 3282947
0.0023123971 -0.36304384 1.2140001 3481861
0.0023123967 -0.35841906 1.2140001 3416328
0.0023123967 -0.3526381 1.2140002 4005159
0.0023123964 -0.34685719 1.2140001 3809570
0.0023123962 -0.34223244 1.2140001 3810335
0.0023123957 -0.33760765 1.2140001 4073776
0.002312396 -0.3329829 1.2140001 4664871
0.0023123955 -0.32835811 1.2140001 4925729
0.0023123955 -0.32257718 1.2140002 4599588
0.0034685854 -0.31679624 1.2140001 5319708
0.0023123948 -0.31332764 1.2140001 4990995
0.0034685852 -0.30870289 1.2140001 4663852
0.003468585 -0.30176574 1.2140001 5058347
0.0034685847 -0.29829717 1.2140001 5320488
0.0025436322 -0.29251623 1.2140001 5256749
-0.0023123648 -0.37113717 1.2140001 3545615
-0.002312365 -0.36766857 1.2140001 3480845
-0.0023123652 -0.36188763 1.2140001 3941125
-0.0023123655 -0.35841906 1.2140001 3875079
-0.0023123659 -0.34685719 1.2140001 3812118
-0.0023123664 -0.34223244 1.2140001 3877655
-0.0023123666 -0.33760762 1.2140001 3944218
-0.0023123666 -0.3329829 1.2140001 4402722
-0.0019269701 -0.32797274 1.2140001 4663852
-0.0023123671 -0.32257718 1.2140002 4534067
-0.0011561768 -0.31332764 1.2140001 4730157
-0.0057809367 -0.37113717 1.2140001 3480848
-0.0069371276 -0.3676686 1.2140001 3351574
-0.0065517314 -0.36265844 1.2140001 3941391
-0.006937128 -0.35841906 1.2140001 4072456
-0.0057809376 -0.35495049 1.2140001 4139284
-0.0057809376 -0.34685719 1.2140001 4270620
-0.0057809381 -0.33760762 1.2140001 4206865
-0.01156189 -0.36188763 1.2140001 4401437
-0.01156189 -0.35841906 1.2140001 4270085
-0.016764747 -0.36304384 1.2140001 3746327
-0.016764749 -0.35784096 1.2140001 3943435
-0.018499035 -0.35495049 1.2140001 3877144
-0.11908759 -0.66943437 1.2140001 2627354
-0.1183168 -0.63089466 1.2140001 3217934
-0.11908759 -0.62781149 1.2140001 3086863
-0.11908759 -0.62318671 1.2140001 2956831
-0.11908759 -0.60121912 1.2140001 2498857
-0.12371236 -0.68562096 1.2140001 2953753
-0.12371236 -0.6833086 1.2140001 3084593
-0.12371236 -0.67752767 1.2140001 2824478
-0.12371236 -0.67290294 1.2140001 2825229
-0.12255616 -0.66827816 1.2140001 2364167
-0.12255616 -0.66249728 1.2140002 2625542
-0.12294157 -0.65710163 1.2140001 2693907
-0.12371236 -0.65324765 1.2140001 2825233
-0.12371236 -0.64284194 1.2140001 3021063
-0.12371236 -0.637061 1.2140001 2954013
-0.12280568 -0.63251245 1.2126669 2888740
-0.12235363 -0.62677467 1.2120001 3021346
-0.12255616 -0.6220305 1.2140001 3022112
-0.12255617 -0.61740577 1.2140001 3413279
-0.12294157 -0.61316639 1.2140001 3349266
-0.12255616 -0.60815626 1.2140001 3481105
-0.12255617 -0.60237527 1.2140002 2564130
-0.12255616 -0.59775054 1.2140001 3087906
-0.12718093 -0.68562096 1.2140001 2888218
-0.12718093 -0.68215239 1.2140001 2822693
-0.12665458 -0.67716765 1.2126669 2627110
-0.12732761 -0.67315096 1.2132002 2629423
-0.12676187 -0.66722858 1.21 2496009
-0.12677631 -0.66289502 1.2117144 2626827
-0.12714601 -0.65647304 1.21 2955551
-0.12676187 -0.65224767 1.21 2825518
-0.12676187 -0.64763808 1.21 3021329
-0.12676187 -0.64302862 1.21 3087154
-0.12676187 -0.63841903 1.21 3020570
-0.12676187 -0.63265723 1.21 2888756
-0.12690157 -0.62642992 1.2113335 3282217
-0.12718093 -0.6220305 1.2140001 3218208
-0.12665458 -0.6171118 1.2126669 3153193
-0.12732759 -0.61306858 1.2132001 3088148
-0.12665458 -0.60787249 1.2126667 3219206
-0.12722529 -0.60246563 1.2128572 3350555
-0.12718093 -0.59659433 1.2140001 3546946
-0.12756634 -0.59235501 1.2140001 3611186
-0.13137141 -0.68220955 1.21 2626582
-0.13137141 -0.67760003 1.21 2561298
-0.13206284 -0.67276001 1.21 2759210
-0.13252379 -0.66838098 1.21 2954522
-0.1325238 -0.66261911 1.21 3085323
-0.13252379 -0.65685713 1.21 3216408
-0.13098729 -0.65263176 1.21 2889258
-0.13021903 -0.64763808 1.21 3349014
-0.13021903 -0.64302862 1.21 3415599
-0.13021903 -0.63841903 1.21 3021075
-0.13219455 -0.63199872 1.21 2954009
-0.13122703 -0.62661606 1.2108001 3412509
-0.13307084 -0.62246591 1.2108001 2691600
-0.1325238 -0.61767626 1.21 3217696
-0.13225605 -0.61286068 1.2105716 3219492
-0.13298474 -0.60822672 1.21 3350552
-0.13247219 -0.60257751 1.2114546 3545884
-0.13180569 -0.59659433 1.2140001 3743796
-0.13180569 -0.59196961 1.2140001 3677740
-0.13180569 -0.58734477 1.2140001 3546154
-0.13219109 -0.58310544 1.2140001 3350818
-0.13296188 -0.57925147 1.2140001 3547682
-0.1371333 -0.6718381 1.21 3021119
-0.13828568 -0.66838098 1.21 3151903
-0.1382857 -0.66261911 1.21 2955281
-0.1371333 -0.65685713 1.21 3216928
-0.13790156 -0.63188893 1.21 3218473
-0.1371333 -0.62689525 1.21 3219746
-0.13790156 -0.62190163 1.21 2891555
-0.13828568 -0.61767626 1.21 3349294
-0.13828568 -0.61306667 1.21 3480885
-0.13828568 -0.60845721 1.21 3218976
-0.13785549 -0.60231918 1.2105716 3285540
-0.13728189 -0.59682035 1.2113335 3612195
-0.1377614 -0.59234625 1.2130001 3611424
-0.13758665 -0.58734477 1.2140002 3873832
-0.13758665 -0.58272004 1.2140002 3349819
-0.13758665 -0.57925147 1.2140001 3743032
-0.14174283 -0.66261911 1.21 3086123
-0.14289521 -0.61191428 1.21 3416356
-0.14289521 -0.60845721 1.21 3221006
-0.14289522 -0.60269523 1.21 3286060
-0.14289521 -0.59693336 1.21 3416615
-0.14313078 -0.5921461 1.2120001 3482653
-0.14282347 -0.58708382 1.2126669 3547930
-0.14382665 -0.58339339 1.2130002 3417887
-0.14221141 -0.57925147 1.2140001 3416624
-0.14865713 -0.61191428 1.21 3349786
-0.14788887 -0.60807312 1.21 3218965
-0.14750475 -0.60269523 1.21 3611944
-0.14750475 -0.59693336 1.21 3351088
-0.14782983 -0.59247184 1.2126669 3679773
-0.14774856 -0.58637524 1.2120001 3941134
-0.14799236 -0.58387625 1.2140001 3546901
-0.14914855 -0.57462668 1.2140001 3676716
-0.15173014 -0.61268252 1.21 3547164
-0.15211426 -0.60845721 1.21 3611928
-0.15235128 -0.60231918 1.2105716 3349290
-0.15224093 -0.59627146 1.2110001 3415605
-0.15228608 -0.59227097 1.2132001 3677221
-0.15261713 -0.58734477 1.2140001 3545880
-0.15300253 -0.58310544 1.2140001 3216920
-0.15377332 -0.57809532 1.2140001 3610930
-0.15377332 -0.57462668 1.2140001 3677490
-0.15672378 -0.61306667 1.21 3283221
-0.15672378 -0.60845721 1.21 3349545
-0.15698284 -0.60253334 1.212 3284516
-0.15724188 -0.59659433 1.2140001 3416109
-0.15724188 -0.59196961 1.2140001 3613473
-0.15724188 -0.58734477 1.2140001 3417109
-0.15724188 -0.58272004 1.2140001 3219469
-0.16294664 -0.62712574 1.21 3284011
-0.16363806 -0.62228572 1.21 3088961
-0.16306187 -0.61710006 1.21 3416091
-0.16248567 -0.61306667 1.21 2892550
-0.16248569 -0.60845721 1.21 3088140
-0.16247012 -0.60257751 1.2114546 3152660
-0.16284126 -0.5967074 1.2126669 3219741
-0.16269751 -0.59195167 1.2116002 3482136
-0.16199045 -0.58764917 1.2132002 3351573
-0.16186664 -0.58272004 1.2140001 3219989
-0.1682476 -0.62113333 1.21 3283509
-0.1682476 -0.61767626 1.21 3152675
-0.1682476 -0.61306667 1.21 2825999
-0.16824758 -0.60845721 1.21 3154707
-0.1682476 -0.60269523 1.21 3088149
-0.1682476 -0.59693336 1.21 3219736
-0.1676622 -0.59182042 1.2113335 3481366
-0.16789795 -0.58756226 1.2134287 3611427
-0.1676476 -0.58272004 1.2140002 3415334
-0.17324126 -0.61729211 1.21 2892834
-0.17285712 -0.61306667 1.21 2631444
-0.17285714 -0.60845721 1.21 3154197
-0.17285714 -0.60269523 1.21 2956044
-0.17285712 -0.59693336 1.21 3285024
-0.1730476 -0.59182036 1.2113335 3612969
-0.17342855 -0.58734477 1.2140001 3810081
-0.17342857 -0.58387625 1.2140001 3547415
-0.17785075 -0.62190163 1.21 3350050
-0.17746663 -0.61767626 1.21 3218463
-0.17746663 -0.61306667 1.21 3219474
-0.17746665 -0.60845721 1.21 3350554
-0.17746665 -0.60269523 1.21 3546385
-0.17746663 -0.59693336 1.21 3416354
-0.17776062 -0.59214616 1.2120001 3547424
-0.17766793 -0.58773017 1.2140001 3417884
-0.17689712 -0.58387625 1.2140001 3350301
-0.18207616 -0.62113333 1.21 3218465
-0.18207616 -0.61767626 1.21 3283233
-0.18207616 -0.61306667 1.21 3219481
-0.18207616 -0.60845721 1.21 3416598
-0.18207616 -0.60269523 1.21 3545878
-0.18207616 -0.59693336 1.21 3152409
-0.18247743 -0.59247184 1.2126669 3285048
-0.1822927 -0.58773017 1.2140001 3285807
-0.18783808 -0.62689525 1.21 3086888
-0.18668568 -0.62228572 1.21 2890027
-0.1866857 -0.61767626 1.21 3152420
-0.18668568 -0.61306667 1.21 3219232
-0.1866857 -0.60845721 1.21 3547424
-0.1866857 -0.60269529 1.21 3416634
-0.18699491 -0.59676325 1.2120001 3351341
-0.18691744 -0.59235501 1.2140001 3548718
-0.1924476 -0.67183816 1.21 2692659
-0.19129521 -0.63265717 1.21 3873811
-0.1924476 -0.62689531 1.21 3282993
-0.1924476 -0.62228572 1.21 3218219
-0.19129521 -0.61767626 1.21 3349532
-0.19129521 -0.61306667 1.21 3348760
-0.19165294 -0.6081658 1.2108001 3611930
-0.19158284 -0.60246676 1.2128572 3350055
-0.19192761 -0.59659433 1.2140001 3286543
-0.19077142 -0.59312576 1.2140001 3876378
-0.19705711 -0.6718381 1.21 2955605
-0.19820949 -0.66838098 1.21 3216688
-0.19820949 -0.66377145 1.21 2820914
-0.19820949 -0.62689525 1.21 3086379
-0.19680473 -0.62158 1.2120001 3283491
-0.19655237 -0.61740577 1.2140001 3085335
-0.19655237 -0.61278099 1.2140001 3152399
-0.19655237 -0.60815626 1.2140001 3216914
-0.19655237 -0.60237527 1.2140002 3020836
-0.19655237 -0.59775054 1.2140001 2761777
-0.20243491 -0.67337465 1.21 2887715
-0.20281902 -0.66838098 1.21 3018026
-0.20243491 -0.6641556 1.21 2689572
-0.20419618 -0.63796639 1.2113335 3153710
-0.20285825 -0.63303131 1.2116002 3152948
-0.20134029 -0.62711942 1.2126669 3020841
-0.20002094 -0.6220305 1.2140001 2956573
-0.20002094 -0.61740577 1.2140001 2824464
-0.20002094 -0.61278099 1.2140001 3086358
-0.20781268 -0.67721593 1.21 2690064
-0.20742854 -0.6729905 1.21 2887975
-0.20742854 -0.66838098 1.21 3149867
-0.20800474 -0.66319531 1.21 2954524
-0.20858093 -0.65685713 1.21 3348752
-0.20781268 -0.65186357 1.21 3217691
-0.20781268 -0.64802229 1.21 3218961
-0.20747237 -0.64318442 1.2116002 3415072
-0.20695807 -0.63937336 1.2140001 3022883
-0.21203807 -0.68220955 1.21 2627121
-0.21203807 -0.67760003 1.21 2431008
-0.21203807 -0.6729905 1.21 3020860
-0.21203807 -0.66838092 1.21 3414320
-0.2120381 -0.66261911 1.21 2955550
-0.21203807 -0.65685713 1.21 3217937
-0.21240951 -0.65198517 1.2108001 3415059
-0.21198665 -0.64808673 1.2130001 3153432
-0.21158284 -0.64399815 1.2140001 3085589
-0.2166476 -0.68220955 1.21 2824510
-0.2166476 -0.67760003 1.21 2693916
-0.2166476 -0.6729905 1.21 3218734
-0.2166476 -0.66838098 1.21 3284014
-0.21679047 -0.66289616 1.2117144 3087906
-0.21620761 -0.65671623 1.2140001 3347731
-0.21620761 -0.65324765 1.2140001 3545877
-0.22163464 -0.6819669 1.2108001 3216167
-0.22162473 -0.67756379 1.2120001 3347498
-0.22146627 -0.67270672 1.2124002 3348031
-0.22198856 -0.66827816 1.2140001 2824501
-0.22083238 -0.66480958 1.2140001 2824256
-0.22661331 -0.68562096 1.2140001 3872044
-0.22661331 -0.68215239 1.2140001 3414315
-0.22661331 -0.67752761 1.2140001 3349804
-0.22545713 -0.67290294 1.2140001 3218215
0.18691337 -0.60253429 1.2190001 4730394
0.18459147 -0.6002124 1.2190001 4532526
0.18343052 -0.59672952 1.2190001 4401483
0.18304354 -0.59247273 1.2190001 4401468
0.18343051 -0.58744192 1.2190001 4599607
0.18343051 -0.58279812 1.2190001 4140815
0.18226956 -0.5793153 1.2190001 4205612
0.17994767 -0.5816372 1.2190001 4269857
0.17878672 -0.57699341 1.2190001 4465725
0.17607781 -0.57234955 1.2190001 3942456
0.17298195 -0.57002765 1.2190001 4205111
0.17143402 -0.56693184 1.2190001 4467247
0.17066003 -0.56074005 1.2190001 4008471
0.16833815 -0.56538385 1.2190001 4598059
0.1671772 -0.56190097 1.2190001 4532765
0.16679022 -0.55764425 1.2190001 4335925
0.16601624 -0.55261338 1.2190001 4270901
0.16601624 -0.54796958 1.2190001 4401443
0.16601624 -0.5444867 1.2190001 4402739
0.16601624 -0.53984284 1.2190001 4205633
0.16369432 -0.53519911 1.2190001 4927033
0.16253337 -0.53171623 1.2190001 4074289
0.15672861 -0.52707243 1.2190001 4928045
0.15672861 -0.52242863 1.2190001 4992559
0.15672861 -0.5166238 1.2190001 5385779
0.15440671 -0.51314104 1.2190001 4861501
0.1544067 -0.50849724 1.2190001 4795979
0.15208478 -0.50153148 1.2190001 4795455
0.15208478 -0.49224386 1.2190001 4928317
0.15208478 -0.48876098 1.2190001 4797498
0.15208478 -0.47947338 1.2190001 5387552
0.14976288 -0.47715145 1.2190001 5124647
0.14976288 -0.47482955 1.2190001 5059348
0.14511907 -0.46205908 1.2190001 4796446
0.14511907 -0.45741528 1.2190001 5058361
0.14511907 -0.4539324 1.2190001 5058642
0.14589305 -0.44851464 1.2190001 4862001
0.14511907 -0.44464481 1.2190001 4795669
0.14279717 -0.44696671 1.2190001 4730414
0.14124922 -0.44387084 1.2190001 4402733
0.13699241 -0.44000098 1.2190001 4534826
0.13737939 -0.43690512 1.2190001 4928801
0.13699241 -0.43303528 1.2190001 5059091
0.13118765 -0.44812766 1.2190001 4860718
0.1323486 -0.44232291 1.2190001 4665391
0.12770478 -0.45161051 1.2190001 4207147
0.12809177 -0.44774067 1.2190001 4927522
0.12770478 -0.44464481 1.2190001 4795690
0.12422194 -0.45625433 1.2190001 4467247
0.12344797 -0.45238447 1.2190001 4271142
0.12306098 -0.44696671 1.2190001 4337430
0.11841717 -0.46554193 1.2190001 4269612
0.11725622 -0.46205908 1.2190001 4596538
0.11841717 -0.45741528 1.2190001 4400704
0.11880416 -0.45315847 1.2190001 4400939
0.11957812 -0.44696671 1.2190001 4140571
0.11338638 -0.46631593 1.2190001 4138810
0.11493431 -0.46205908 1.2190001 4662838
0.11493431 -0.45741528 1.2190001 4465468
0.1126124 -0.45277148 1.2190001 4400439
0.11106448 -0.44851464 1.2190001 4138551
0.1102905 -0.44232291 1.2190001 4007981
0.1102905 -0.43303528 1.2190001 4399389
0.10680766 -0.44696671 1.2190001 3939874
0.10703985 -0.44278726 1.2190001 4269094
0.10719465 -0.43613112 1.2190001 4071203
0.10680766 -0.43187433 1.2190001 4071980
0.10564669 -0.42142576 1.2190001 4402738
0.10564669 -0.41910386 1.2190001 4467772
0.10332479 -0.44232288 1.2190001 4464956
0.10332479 -0.43071336 1.2190001 4269128
0.10177686 -0.42684352 1.2190001 4467755
0.10216384 -0.42258671 1.2190001 4139565
0.10177685 -0.41832989 1.2190001 4074290
0.10177685 -0.4129121 1.2190001 4336929
0.10100288 -0.40981624 1.2190001 4664612
0.098680973 -0.42374763 1.2190001 4075036
0.098680973 -0.41794288 1.2190001 3877929
0.098680973 -0.41329908 1.2190001 4074779
0.097520024 -0.40749434 1.2190001 4141097
0.098680973 -0.38659716 1.2190001 4470286
0.096359074 -0.37266576 1.2190001 4533814
0.097520024 -0.34712479 1.2190001 4797461
0.097287841 -0.34294537 1.2190001 5189173
0.09713304 -0.33628926 1.2190001 5254440
0.096359074 -0.33203241 1.2190001 5320228
0.091715261 -0.41678193 1.2190001 4073274
0.092876211 -0.40633339 1.2190001 4337184
0.091715261 -0.40052858 1.2190001 4467501
0.091715261 -0.37730953 1.2190001 4336672
0.092876211 -0.37324619 1.2190001 4402477
0.092876211 -0.34828573 1.2190001 4730918
0.092489228 -0.34093305 1.2190001 5123887
0.092876211 -0.33667621 1.2190001 5123372
0.09403716 -0.33203241 1.2190001 5255470
0.091715261 -0.32738858 1.2190001 5125412
0.091715261 -0.31810099 1.2190001 5256750
0.089393355 -0.40517241 1.2190001 4468259
0.088232405 -0.40168953 1.2190001 4730921
0.088619389 -0.39665875 1.2190001 4533798
0.088232405 -0.39240193 1.2190001 4402454
0.088619389 -0.38737115 1.2190001 4140075
0.088232405 -0.38311434 1.2190001 3943439
0.088619389 -0.37808353 1.2190001 4074520
0.088232405 -0.37266573 1.2190001 4139558
0.089393355 -0.36686099 1.2190001 4204320
0.087071456 -0.35176858 1.2190001 4466953
0.088619389 -0.34867272 1.2190001 4663572
0.089393355 -0.34015906 1.2190001 5058098
0.089393355 -0.32738858 1.2190001 5125151
0.088232405 -0.31926194 1.2190001 5254956
0.088232405 -0.31461811 1.2190001 5387317
0.082427636 -0.41678196 1.2190001 4269879
0.082427636 -0.41329908 1.2190001 4072744
0.082427636 -0.40795872 1.2190001 3679265
0.082427636 -0.40168959 1.2190001 4138802
0.084749542 -0.39588481 1.2190001 4270657
0.082892016 -0.39216974 1.2190001 3941923
0.082892016 -0.38752595 1.2190001 3877406
0.082427636 -0.38311434 1.2190001 3614735
0.082427636 -0.37847051 1.2190001 3811097
0.082427636 -0.37382668 1.2190001 3941919
0.082427636 -0.36686099 1.2190001 4203288
0.082892016 -0.36244935 1.2190001 4531234
0.082427636 -0.35718641 1.2190001 4532745
0.081963256 -0.35269734 1.2190001 4794373
0.081266686 -0.34248099 1.2190001 4795680
0.083008111 -0.3175205 1.2190001 5256235
0.083008111 -0.3128767 1.2190001 5386542
0.081266686 -0.30997431 1.2190001 5452090
0.075461932 -0.43187433 1.2190001 3745583
0.076235898 -0.42684352 1.2190001 4072230
0.076622874 -0.42374763 1.2190001 3940653
0.075461924 -0.41910386 1.2190001 4137010
0.07778383 -0.41329908 1.2190001 4137761
0.07778383 -0.40285051 1.2190001 3743784
0.07778383 -0.38659716 1.2190001 3810839
0.076622874 -0.38195336 1.2190001 3483172
0.076622874 -0.37847048 1.2190001 3875879
0.076622874 -0.37382668 1.2190001 4139032
0.07778383 -0.35641241 1.2190001 4532481
0.07778383 -0.35292953 1.2190001 4795407
0.07778383 -0.34248099 1.2190001 4469281
0.076622881 -0.30765241 1.2190001 5583928
0.076622874 -0.30300859 1.2190001 5518144
0.071979076 -0.43187433 1.2190001 3416093
0.071979076 -0.42723048 1.2190001 3218719
0.072366059 -0.42297369 1.2190001 3480108
0.073140018 -0.41910386 1.2190001 3808559
0.071979068 -0.37847051 1.2190001 3940377
0.073140018 -0.37498763 1.2190001 4071689
0.071979068 -0.30533049 1.2190001 5453636
0.071979068 -0.30184764 1.2190001 5322562
0.071979068 -0.29720384 1.2190001 5584696
0.070818119 -0.29372096 1.2190001 5783089
0.066174313 -0.44000098 1.2190001 3415085
0.066174313 -0.43767908 1.2190001 3545633
0.06733527 -0.43071336 1.2190001 3479302
0.06733527 -0.42723051 1.2190001 3479818
0.067335263 -0.42374763 1.2190001 3349520
0.068496212 -0.38195336 1.2190001 3680788
0.067335263 -0.37847048 1.2190001 3943700
0.067722246 -0.28752923 1.2190001 5717818
0.06694828 -0.2836594 1.2190001 5651527
0.063078441 -0.44774067 1.2190001 3612190
0.063852407 -0.44000098 1.2190001 3218465
0.063852407 -0.43767908 1.2190001 3348764
0.063078441 -0.42684352 1.2190001 3479559
0.062304467 -0.42297369 1.2190001 3609867
0.061530497 -0.41678193 1.2190001 3808538
0.06269145 -0.41446003 1.2190001 3611419
0.06269145 -0.40517241 1.2190001 3612452
0.061530497 -0.40285051 1.2190001 3744300
0.061530497 -0.39588481 1.2190001 4006943
0.061530497 -0.39240193 1.2190001 4204581
0.06269145 -0.28675526 1.2190001 5389632
0.06269145 -0.28327239 1.2190001 5389119
0.056886695 -0.47250763 1.2190001 3217948
0.058047641 -0.44812766 1.2190001 3348764
0.059208594 -0.41678193 1.2190001 3808791
0.058047641 -0.41446003 1.2190001 3809053
0.059208594 -0.40517241 1.2190001 3809324
0.058434624 -0.40130258 1.2190001 3942174
0.058047641 -0.39704573 1.2190001 4138770
0.058047641 -0.39240193 1.2190001 4271398
0.058047641 -0.38775811 1.2190001 4007457
0.058047634 -0.28327239 1.2190001 5716536
0.058047634 -0.27978954 1.2190001 5913139
0.053403832 -0.47250763 1.2190001 3086106
0.054564781 -0.46670288 1.2190001 2954017
0.053403828 -0.44696671 1.2190001 3086862
0.053403828 -0.42258671 1.2190001 3546897
0.054564781 -0.41794288 1.2190001 3810574
0.053790811 -0.41368604 1.2190001 3941664
0.053403836 -0.40749437 1.2190001 4203073
0.053403828 -0.40168956 1.2190001 4138292
0.053790811 -0.39743274 1.2190001 4270133
0.053403828 -0.39240193 1.2190001 3811628
0.053403828 -0.38775811 1.2190001 3481631
0.053403821 -0.28211144 1.2190001 5782077
0.053403828 -0.27746767 1.2190001 5847881
0.052242871 -0.27282384 1.2190001 6044726
0.049147014 -0.47173366 1.2190001 3021330
0.046438117 -0.46322003 1.2190001 3282988
0.045277163 -0.44232288 1.2190001 3810342
0.047599066 -0.43535718 1.2190001 3612451
0.045277163 -0.43187433 1.2190001 3744023
0.0468251 -0.42761749 1.2190001 3416339
0.047599073 -0.42258674 1.2190001 3679250
0.049920972 -0.40517241 1.2190001 4401212
0.047134686 -0.40192175 1.2190001 4006713
0.046051133 -0.39743274 1.2190001 3612455
0.047599066 -0.39240193 1.2190001 3153440
0.047599066 -0.38775811 1.2190001 3087121
0.048063438 -0.2830402 1.2190001 5784376
0.047599059 -0.27746764 1.219 6241861
0.046825092 -0.27204987 1.2190001 6438200
0.045277156 -0.26701906 1.2190001 6439725
0.042955261 -0.46322003 1.2190001 3415093
0.041794311 -0.44232291 1.2190001 3941677
0.041794308 -0.43651813 1.2190001 3746082
0.041794308 -0.43187433 1.2190001 3680277
0.041794308 -0.42723048 1.2190001 3809305
0.041794308 -0.42258668 1.2190001 3875354
0.041794308 -0.41794288 1.2190001 4465692
0.041407324 -0.4136861 1.2190001 3940626
0.041213829 -0.40691388 1.2190001 3806504
0.041794308 -0.40168953 1.2190001 3675970
0.041794308 -0.39704573 1.2190001 3546149
0.041794308 -0.39240193 1.2190001 3152919
0.042955261 -0.38775811 1.2190001 2694410
0.042181287 -0.2828854 1.2190001 5717296
0.041794304 -0.27746767 1.2190001 6110274
0.0417943 -0.27166289 1.2190001 6242361
0.0417943 -0.26701906 1.2190001 6308396
0.035989549 -0.47366858 1.2190001 4203021
0.037150498 -0.46554193 1.2190001 3611932
0.037150498 -0.46205908 1.2190001 3678229
0.035989545 -0.45741528 1.2190001 3744288
0.036763515 -0.45315847 1.2190001 3679009
0.036763515 -0.44774067 1.2190001 3677977
0.037730973 -0.44290337 1.2190001 3744287
0.037537485 -0.43690512 1.2190001 3613208
0.038311452 -0.43187433 1.2190001 3679756
0.038311452 -0.42723051 1.2190001 4072204
0.038311452 -0.42258668 1.2190001 3743246
0.038311452 -0.41794288 1.2190001 4201742
0.038311452 -0.41329908 1.2190001 3938052
0.037730977 -0.40691388 1.2190001 4068374
0.037150498 -0.40168953 1.2190001 3609124
0.037150498 -0.39704573 1.2190001 3151129
0.037150498 -0.39240193 1.2190001 3020560
0.035989545 -0.38891906 1.2190001 3020297
0.037150491 -0.28211144 1.2190001 5651735
0.037382681 -0.27793202 1.2190001 5783089
0.037150491 -0.27166289 1.2190001 5915202
0.037150491 -0.26701906 1.2190001 6178630
0.03134574 -0.53055531 1.2190001 3741727
0.03134574 -0.52823335 1.2190001 3414538
0.03134574 -0.50617528 1.2190001 2756888
0.032119706 -0.50114453 1.2190001 2626310
0.03134574 -0.4980486 1.2190001 3086089
0.03134574 -0.48643908 1.2190001 3409425
0.03211971 -0.48334321 1.2190001 3547670
0.032506689 -0.47831243 1.2190001 3614242
0.033087168 -0.47192717 1.2190001 3677979
0.033667639 -0.46670288 1.2190001 3546664
0.033667639 -0.46205908 1.2190001 3546380
0.032506686 -0.45857623 1.2190001 3414055
0.033667639 -0.45161051 1.2190001 3088433
0.033667639 -0.44696671 1.2190001 3479596
0.033667639 -0.40517241 1.2190001 3936552
0.032506686 -0.40168956 1.2190001 3346713
0.032506689 -0.39704573 1.2190001 3215130
0.032506686 -0.39240193 1.2190001 3280919
0.032506686 -0.38775811 1.2190001 3216660
0.032506682 -0.38311434 1.2190001 3349022
0.031345733 -0.37730953 1.2190001 3546643
0.033667631 -0.28211144 1.2190001 5716568
0.033667631 -0.27862859 1.2190001 5651529
0.033667631 -0.27050194 1.2190001 5850941
0.032506678 -0.26701906 1.2190001 6243910
0.026701931 -0.53519911 1.2190001 2889007
0.02786288 -0.53171623 1.2190001 3085864
0.02786288 -0.52707243 1.2190001 2497037
0.026701929 -0.51894575 1.2190001 3019778
0.027630692 -0.50687188 1.2190001 2888216
0.02786288 -0.50153148 1.2190001 2955023
0.027475897 -0.49727464 1.2190001 3416586
0.026701929 -0.49224386 1.2190001 3876370
0.027475895 -0.48721308 1.2190001 3548187
0.029023832 -0.48295623 1.2190001 3679272
0.02824986 -0.40130255 1.2190001 3085070
0.027862875 -0.39704576 1.2190001 3218197
0.027862875 -0.39240193 1.2190001 2955038
0.027862875 -0.38775814 1.2190001 3019550
0.027862875 -0.38311431 1.2190001 3217704
0.027475892 -0.37808353 1.2190001 3481106
0.027862875 -0.37208524 1.2190001 3153945
0.029023828 -0.36802194 1.2190001 3415583
0.027862869 -0.27050194 1.2190001 5848633
0.028249854 -0.26740605 1.2190001 6044481
0.022638595 -0.53694052 1.2190001 3151906
0.023219071 -0.53171623 1.2190001 3087918
0.023219071 -0.52707237 1.2190001 2957577
0.023219071 -0.52242863 1.2190001 3152647
0.023219071 -0.51778477 1.2190001 3020037
0.023219071 -0.51314104 1.2190001 3086854
0.023219069 -0.5073362 1.2190001 3152917
0.023219071 -0.50153148 1.2190001 3218462
0.024380025 -0.49688768 1.2190001 3350538
0.024380025 -0.49224386 1.2190001 3417872
0.024380023 -0.48876098 1.2190001 3484183
0.023219066 -0.40052858 1.2190001 2626570
0.023219066 -0.39704573 1.2190001 2954505
0.023219066 -0.39240193 1.2190001 3086852
0.023219066 -0.38775811 1.2190001 3152399
0.024380019 -0.38311434 1.2190001 3348247
0.023219066 -0.37847048 1.2190001 4136743
0.023451256 -0.37313014 1.2190001 3679524
0.024380019 -0.36802194 1.2190001 3811124
0.024380015 -0.27746764 1.2190001 5586991
0.02321906 -0.27050194 1.2190001 5913131
0.02321906 -0.26818001 1.2190001 6176559
0.017414317 -0.66058201 1.2190001 918289
0.019736219 -0.65709913 1.2190001 1771023
0.019736219 -0.65245533 1.2190001 1705224
0.019736219 -0.64781147 1.2190001 1641219
0.019736219 -0.64316761 1.2190001 1641729
0.019155744 -0.63678241 1.2190001 1509634
0.017414315 -0.63155818 1.2190001 1181441
0.018962251 -0.62652743 1.2190001 1705765
0.017414315 -0.62227046 1.2190001 1640728
0.015866378 -0.61801368 1.2190001 1902862
0.015092408 -0.59208572 1.2190001 2426885
0.015092407 -0.5816372 1.2190001 2231850
0.01625336 -0.57815433 1.2190001 2427443
0.017414311 -0.57293004 1.2190001 2625564
0.018188281 -0.56693178 1.2190001 2756368
0.015092406 -0.56190097 1.2190001 2362882
0.015092406 -0.55725718 1.2190001 2167059
0.015092406 -0.55261338 1.2190001 2298140
0.016253358 -0.54796958 1.2190001 2431256
0.018575264 -0.54332578 1.2190001 3022600
0.018575264 -0.53868192 1.2190001 3150104
0.017414309 -0.53055531 1.2190001 2952994
0.018188279 -0.52668548 1.2190001 3018783
0.019736214 -0.52126765 1.2190001 3150870
0.019736214 -0.5166238 1.2190001 3217937
0.018575257 -0.40052858 1.2190001 3019538
0.017878685 -0.39681354 1.2190001 3346455
0.017414303 -0.39240193 1.2190001 3414809
0.017414303 -0.38775811 1.2190001 3546415
0.01625335 -0.38311434 1.2190001 3677222
0.017414303 -0.37847051 1.2190001 3677232
0.017414303 -0.37382671 1.2190001 3612955
0.017414298 -0.27630669 1.2190001 5651518
0.018575251 -0.27166289 1.2190001 5782845
0.012770505 -0.61646575 1.2190001 2098953
0.011222567 -0.61336988 1.2190001 2098691
0.011609551 -0.60833907 1.2190001 1836555
0.011029075 -0.60311478 1.2190001 1705992
0.011609551 -0.59672958 1.2190001 1969154
0.012770504 -0.59208572 1.2190001 2297347
0.011609551 -0.58744192 1.2190001 2361348
0.012770503 -0.58279812 1.2190001 2230799
0.012770502 -0.55841815 1.2190001 1708044
0.012770502 -0.5468086 1.2190001 1971481
0.011609541 -0.39124098 1.2190001 3284253
0.012770494 -0.38891906 1.2190001 3743543
0.011609541 -0.37847048 1.2190001 3282968
0.011609541 -0.37382671 1.2190001 3151881
0.011609537 -0.27862859 1.2190001 5650237
0.0081266947 -0.61298287 1.2190001 1903108
0.0081266938 -0.60253435 1.2190001 1377287
0.0081266845 -0.39124098 1.2190001 2692879
0.0081266845 -0.37730953 1.2190001 3216653
0.0069657317 -0.37382668 1.2190001 3020037
0.0069657271 -0.28211144 1.2190001 5453113
0.0069657271 -0.27978954 1.2190001 5519168
0.0011609691 -0.38195336 1.2190001 2824706
0.001160969 -0.37730953 1.2190001 3283716
0.0023219213 -0.37498763 1.2190001 3151877
0.0011609663 -0.31810099 1.2190001 5123864
0.0023219187 -0.31229621 1.2190001 4663324
0.0020897279 -0.30718803 1.2190001 4663581
0.0011609657 -0.30184764 1.2190001 5121566
0.0011609655 -0.29836479 1.2190001 5714728
0.0011609653 -0.29372096 1.2190001 5191468
0.0023219176 -0.28791621 1.2190001 5191470
0.0023219173 -0.28327239 1.2190001 5257021
0.0034828698 -0.27978954 1.2190001 5453124
-0.0023218882 -0.38195336 1.2190001 3874050
-0.0019349043 -0.37808353 1.2190001 3611143
-0.0023218887 -0.37498763 1.2190001 3544335
-0.0023218889 -0.36570004 1.2190001 3677959
-0.0023218894 -0.35641241 1.2190001 3875346
-0.0023218896 -0.35292953 1.2190001 3810320
-0.0034828431 -0.33087146 1.2190001 4599340
-0.002321891 -0.31810099 1.2190001 4730675
-0.0027088756 -0.31307018 1.2190001 4532799
-0.0023218915 -0.30765244 1.2190001 4598314
-0.0023218917 -0.30184764 1.2190001 5058108
-0.0019349077 -0.29759082 1.2190001 5647922
-0.001934908 -0.29294699 1.2190001 4994093
-0.0011609398 -0.28907716 1.2190001 5191981
-0.0069656982 -0.38195336 1.2190001 3413777
-0.0069656982 -0.37847048 1.2190001 3414032
-0.0073526832 -0.37421367 1.2190001 3480072
-0.0081266519 -0.36570004 1.2190001 3875871
-0.0081266519 -0.35641241 1.2190001 4204826
-0.0069657001 -0.35292953 1.2190001 4270872
-0.0081266528 -0.34828573 1.2190001 4401959
-0.0071978914 -0.34294537 1.2190001 4468252
-0.0073526846 -0.33628926 1.2190001 4271633
-0.0069657005 -0.33203241 1.2190001 4336676
-0.0069657005 -0.32738858 1.2190001 4401451
-0.006965701 -0.32274479 1.2190001 4205359
-0.0069657015 -0.31810099 1.2190001 4335662
-0.0069657019 -0.31345716 1.2190001 4466491
-0.0069657019 -0.30765241 1.2190001 4598576
-0.0069657024 -0.30184764 1.2190001 4991542
-0.011609508 -0.38659716 1.2190001 2759182
-0.011609508 -0.38195336 1.2190001 3349787
-0.010448555 -0.37730953 1.2190001 3349531
-0.011377318 -0.37220135 1.2190001 3613214
-0.011609509 -0.36686099 1.2190001 3811121
-0.011609509 -0.35641241 1.2190001 4139281
-0.011609509 -0.35292956 1.2190001 4074024
-0.01160951 -0.34828573 1.2190001 4467240
-0.011029033 -0.34306145 1.2190001 4795431
-0.01160951 -0.33667624 1.2190001 4402480
-0.010448557 -0.33203241 1.2190001 4532772
-0.010448558 -0.32738858 1.2190001 4401191
-0.010448558 -0.32274479 1.2190001 4859939
-0.010448558 -0.31926194 1.2190001 4793875
-0.010448558 -0.31461811 1.2190001 4531758
-0.01044856 -0.30765241 1.2190001 4532266
-0.011222527 -0.30146068 1.2190001 5122348
-0.01741427 -0.37034386 1.2190001 3679001
-0.01741427 -0.36744148 1.2190001 3615001
-0.018962208 -0.3618302 1.2190001 3942921
-0.015092366 -0.35641241 1.2190001 3746833
-0.017414272 -0.35292956 1.2190001 3746320
-0.015092367 -0.34480289 1.2190001 4466981
-0.017414272 -0.33644405 1.2190001 4334640
-0.018962208 -0.3324194 1.2190001 4531757
-0.019736176 -0.32274479 1.2190001 4532513
-0.015092369 -0.30184764 1.2190001 5058341
-0.022832049 -0.366474 1.2190001 3680006
-0.022832051 -0.3618302 1.2190001 3941644
-0.023219034 -0.35757336 1.2190001 4071198
-0.023219034 -0.35409051 1.2190001 4007202
-0.023219034 -0.33667621 1.2190001 4270885
-0.023219034 -0.33203241 1.2190001 4663620
-0.023606017 -0.32777557 1.2190001 5122093
-0.023219034 -0.32274479 1.2190001 4992296
-0.027862841 -0.36570004 1.2190001 3811333
-0.029023794 -0.36337811 1.2190001 4072719
-0.027862843 -0.35757339 1.2190001 4203543
-0.028249828 -0.35331655 1.2190001 4202780
-0.027862845 -0.34248099 1.2190001 4531745
-0.027862843 -0.33667624 1.2190001 4924953
-0.027862843 -0.33203241 1.2190001 4992825
-0.027862843 -0.32738858 1.2190001 5189680
-0.032119669 -0.366474 1.2190001 3746070
-0.032506652 -0.35757336 1.2190001 4726825
-0.032506652 -0.35292953 1.2190001 4598039
-0.032506656 -0.34828573 1.2190001 4927251
-0.032506656 -0.34248099 1.2190001 4730408
-0.031345703 -0.33783716 1.2190001 4927286
-0.031345703 -0.33203241 1.2190001 5059402
-0.038311414 -0.38659716 1.2190001 2626313
-0.038311414 -0.38427529 1.2190001 2823183
-0.038311418 -0.36686099 1.2190001 4206352
-0.037150465 -0.35757336 1.2190001 4466735
-0.037150465 -0.35292956 1.2190001 4335399
-0.037150465 -0.34828573 1.2190001 4533278
-0.036918275 -0.34294537 1.2190001 4664104
-0.04179427 -0.38775811 1.2190001 3216387
-0.042181261 -0.38350129 1.2190001 3216907
-0.042181261 -0.37808353 1.2190001 3678480
-0.041794278 -0.37266573 1.2190001 4137998
-0.041794274 -0.36686099 1.2190001 3744521
-0.041794274 -0.36221716 1.2190001 3810050
-0.041794274 -0.35757336 1.2190001 4006166
-0.041794274 -0.35292953 1.2190001 3875106
-0.041794274 -0.34828573 1.2190001 3810856
-0.041794274 -0.34364194 1.2190001 3679783
-0.046051096 -0.38737115 1.2190001 3807746
-0.04527713 -0.38311434 1.2190001 3350530
-0.0460511 -0.37808353 1.2190001 3611396
-0.047308799 -0.37237552 1.219 3480597
-0.046438083 -0.36686099 1.2190001 3414799
-0.046438083 -0.36221719 1.2190001 3481603
-0.046438083 -0.35757336 1.2190001 3347982
-0.04527713 -0.35292953 1.2190001 3479068
-0.04527713 -0.34828573 1.2190001 3545893
-0.04527713 -0.34364194 1.2190001 3480355
-0.04527713 -0.30997431 1.2190001 4992562
-0.11493426 -0.635041 1.2190001 2954766
-0.11493426 -0.6327191 1.2190001 3217931
-0.11493426 -0.60369527 1.2190001 2892576
-0.11957807 -0.6768353 1.2190001 2888999
-0.11957807 -0.6745134 1.2190001 2889248
-0.11957808 -0.66754764 1.2190001 2496275
-0.11957807 -0.66290385 1.2190001 2560789
-0.11803015 -0.63658899 1.2190001 2823697
-0.11725617 -0.6303972 1.2190001 3152651
-0.11803015 -0.62730139 1.2190001 2825502
-0.11841712 -0.62227046 1.2190001 3021591
-0.11880411 -0.61801368 1.2190001 3283464
-0.11841712 -0.61298287 1.2190001 3218195
-0.11841712 -0.60833913 1.2190001 3088424
-0.11803015 -0.60253429 1.2190001 2957602
-0.11957808 -0.5955686 1.2190001 3743248
-0.11957808 -0.59208572 1.2190001 3415572
-0.11957808 -0.5886029 1.2190001 3284526
-0.12189998 -0.68728387 1.2190001 3084577
-0.12267394 -0.68302715 1.2190001 3347491
-0.12189998 -0.67799628 1.2190001 3022108
-0.12189998 -0.6745134 1.2190001 3086357
-0.12189998 -0.65709913 1.2190001 2759189
-0.12344792 -0.65206838 1.2190001 3217166
-0.12306093 -0.64781147 1.2190001 3020310
-0.12267395 -0.64278066 1.2190001 3085836
-0.12189998 -0.63852382 1.2190001 2824727
-0.12189998 -0.61414385 1.2190001 3349263
-0.12306093 -0.59672952 1.2190001 3415576
-0.12306093 -0.59208572 1.2190001 3415307
-0.12306093 -0.586281 1.2190001 3218972
-0.12267396 -0.58318514 1.2190001 2892058
-0.12731776 -0.59169877 1.2190001 3610654
-0.12770474 -0.58744198 1.2190001 3415836
-0.12770474 -0.58279812 1.2190001 3417361
-0.1311876 -0.58279812 1.2190001 3548181
-0.13234855 -0.5793153 1.2190001 3547171
-0.1335095 -0.57002765 1.2190001 3284228
-0.13699235 -0.57815433 1.2190001 3612204
-0.13699237 -0.57002765 1.2190001 3546419
-0.13660538 -0.56693178 1.2190001 3611949
-0.14279713 -0.5839591 1.2190001 3482415
-0.14163616 -0.57815433 1.2190001 3678255
-0.14163616 -0.57002765 1.2190001 3546167
-0.14163616 -0.56654483 1.2190001 3350829
-0.14279713 -0.56306195 1.2190001 3221538
-0.14790532 -0.58256596 1.2190001 3284519
-0.14697655 -0.57838655 1.2190001 3480621
-0.14790532 -0.57188517 1.2190001 3545634
-0.14744094 -0.56654477 1.2190001 3481645
-0.14860189 -0.56306195 1.2190001 3873578
-0.15208474 -0.58279812 1.2190001 3480620
-0.15208474 -0.57815433 1.2190001 3612487
-0.15347788 -0.57234955 1.2190001 3808049
-0.15324569 -0.56654483 1.2190001 3544884
-0.15363267 -0.56228799 1.2190001 3612709
-0.15440665 -0.55841815 1.2190001 3612725
-0.15788952 -0.5816372 1.2190001 3416601
-0.15788952 -0.57815439 1.2190001 3546152
-0.15672855 -0.57234955 1.2190001 3676188
-0.15672855 -0.56654477 1.2190001 3479590
-0.15750253 -0.56228799 1.2190001 3613987
-0.15672855 -0.55725718 1.2190001 3874606
-0.16253331 -0.5816372 1.2190001 2957854
-0.16253331 -0.57815433 1.2190001 3417132
-0.1627655 -0.57234955 1.2190001 3744306
-0.16137236 -0.56306195 1.2190001 3613716
-0.16717714 -0.5816372 1.2190001 3153715
-0.16601618 -0.57815433 1.2190001 3285042
-0.16601618 -0.57467145 1.2190001 3547188
-0.17220792 -0.58241117 1.2190001 3547412
-0.17065997 -0.5793153 1.2190001 3416109
-0.17994761 -0.58744192 1.2190001 3284770
-0.17716131 -0.58303034 1.2190001 3482138
-0.18381745 -0.58705497 1.2190001 3220020
-0.1822695 -0.5839591 1.2190001 3153958
-0.18846126 -0.59169877 1.2190001 3220523
-0.19387902 -0.5955686 1.2190001 3612683
-0.1969749 -0.59711659 1.2190001 3088949
-0.20316665 -0.62691438 1.2190001 2890273
-0.20316665 -0.62227046 1.2190001 2693641
-0.20316665 -0.61762667 1.2190001 2626331
-0.20084475 -0.61182195 1.2190001 3085839
-0.20084475 -0.60833907 1.2190001 2954787
-0.20084475 -0.60369527 1.2190001 2627367
-0.20781046 -0.63852382 1.2190001 3086881
-0.20548855 -0.63155818 1.2190001 3020828
-0.20548855 -0.62691438 1.2190001 2756902
-0.21477617 -0.64781147 1.2190001 2629670
-0.21013238 -0.64432859 1.2190001 3349019
-0.21941999 -0.66174293 1.2190001 3282199
-0.21941999 -0.65826005 1.2190001 3412248
-0.21709809 -0.65361625 1.2190001 3414806
-0.22290283 -0.66638672 1.2190001 2627634
-0.22870761 -0.6768353 1.2190001 3218471
-0.2263857 -0.6721915 1.2190001 2955303
-0.2263857 -0.66986954 1.2190001 2823209
-0.23102951 -0.68728387 1.2190001 3480107
-0.23102951 -0.68264008 1.2190001 3021374
0.1875267 -0.59752291 1.223 4664631
0.1867502 -0.59208733 1.223 4600375
0.18170288 -0.57772195 1.223 4270400
0.18053813 -0.5718981 1.223 4202812
0.18053813 -0.56840384 1.223 4401202
0.18053813 -0.56258005 1.223 4466206
0.18053813 -0.5567562 1.223 4403237
0.1782086 -0.5730629 1.223 4007735
0.17665559 -0.5687921 1.223 4467241
0.17587908 -0.56258005 1.223 4729616
0.17354956 -0.56723905 1.223 4533031
0.17261775 -0.56258005 1.223 4205092
0.17122003 -0.55792093 1.223 4467512
0.16889051 -0.5567562 1.223 4532026
0.16889051 -0.5520972 1.223 4534056
0.16889051 -0.54743814 1.223 4468517
0.16656099 -0.54394388 1.223 4271175
0.16656099 -0.53812003 1.223 4926523
0.16423146 -0.53229618 1.223 4140344
0.1630667 -0.52996671 1.223 4271145
0.15957242 -0.52763718 1.223 4730905
0.15879592 -0.52142513 1.223 4992047
0.15840766 -0.51715434 1.223 5057589
0.15801941 -0.51288354 1.223 4860995
0.15724288 -0.50900102 1.223 5057861
0.15491335 -0.50667143 1.223 4860984
0.15491335 -0.50317717 1.223 4927798
0.15258384 -0.49851811 1.223 4992309
0.15491335 -0.49036476 1.223 4927297
0.15491335 -0.48687047 1.223 4993577
0.15491335 -0.4833762 1.223 5190659
0.14559525 -0.47172859 1.223 4207651
0.14559525 -0.4682343 1.223 4469792
0.14792478 -0.4530924 1.223 4994877
0.14792478 -0.44843334 1.223 4992812
0.14637177 -0.44299778 1.223 4861990
0.14248924 -0.44222128 1.223 4468274
0.14093621 -0.43795049 1.223 4862259
0.14093621 -0.4344562 1.223 5125681
0.13627715 -0.43678573 1.223 4862994
0.13860668 -0.4321267 1.223 4927769
0.13767487 -0.42793354 1.223 4403993
0.13317114 -0.43756223 1.223 4665633
0.13278288 -0.4344562 1.223 4730907
0.12695907 -0.45076287 1.223 4535835
0.12812383 -0.44260955 1.223 4468263
0.12346479 -0.45076287 1.223 4271884
0.12346479 -0.44610384 1.223 4271905
0.12346479 -0.44260952 1.223 4270865
0.11717506 -0.4516947 1.223 4531495
0.11717508 -0.44703564 1.223 3943716
0.1170586 -0.44319189 1.223 3484714
0.11531145 -0.43911526 1.223 4073774
0.11298193 -0.44726861 1.223 3942958
0.11220543 -0.44299778 1.223 3746102
0.11181717 -0.43795049 1.223 4202540
0.11220543 -0.43290323 1.223 4334354
0.11123479 -0.42805001 1.223 4336669
0.1106524 -0.42164379 1.223 4270902
0.10832288 -0.4321267 1.223 4269350
0.10715812 -0.42746758 1.223 4402470
0.10832287 -0.42164379 1.223 4336440
0.10599335 -0.41698477 1.223 4468287
0.10599335 -0.41232574 1.223 4731431
0.10366384 -0.42979714 1.223 4533307
0.10366383 -0.41698477 1.223 4271411
0.10366383 -0.41116098 1.223 4729896
0.1013343 -0.40883145 1.223 4466477
0.1013343 -0.39951333 1.223 4400935
0.1013343 -0.39019525 1.223 4337162
0.1013343 -0.38670096 1.223 4272155
0.1013343 -0.37738287 1.223 4532536
0.10249907 -0.37388858 1.223 4598595
0.1013343 -0.36806476 1.223 4534071
0.1013343 -0.35292286 1.223 5058866
0.1013343 -0.34709907 1.223 5059107
0.1013343 -0.34244001 1.223 4729913
0.1013343 -0.33778095 1.223 5124141
0.097840011 -0.40650192 1.223 3943977
0.097840011 -0.40300763 1.223 4663595
0.098228276 -0.39796036 1.223 4597796
0.097840019 -0.39135998 1.223 4600071
0.097451761 -0.38631272 1.223 4469524
0.097840011 -0.38204193 1.223 4403240
0.097840011 -0.37738287 1.223 4795444
0.097840011 -0.37272382 1.223 4533563
0.097840019 -0.36806476 1.223 4468015
0.097840019 -0.36340573 1.223 4533536
0.096675254 -0.35525239 1.223 4534848
0.097840019 -0.35175812 1.223 4534829
0.099004775 -0.34127524 1.223 5057081
0.099004775 -0.33894572 1.223 5123116
0.099004775 -0.3331219 1.223 5517084
0.096675254 -0.3272981 1.223 5322786
0.096675254 -0.32380384 1.223 5324584
0.094345734 -0.40650192 1.223 4140573
0.093569227 -0.40339589 1.223 4532514
0.092016205 -0.39834857 1.223 4468274
0.092016205 -0.39252481 1.223 4403737
0.093180969 -0.38670096 1.223 4140560
0.093180969 -0.3820419 1.223 3877657
0.094345734 -0.37854761 1.223 4730150
0.094345734 -0.37155905 1.223 4467765
0.093180969 -0.36806479 1.223 4467244
0.093180969 -0.36340573 1.223 4533528
0.092016205 -0.35758191 1.223 4534042
0.093180969 -0.35292286 1.223 4599589
0.094345734 -0.32846287 1.223 5191210
0.094345734 -0.32263908 1.223 5258020
0.092016205 -0.31565049 1.223 5388087
0.092016205 -0.3121562 1.223 5649973
0.092016205 -0.30866191 1.223 6173754
0.087357163 -0.39019525 1.223 4205620
0.087357163 -0.38087717 1.223 4075026
0.086580649 -0.36767656 1.223 4007711
0.08852192 -0.3634057 1.223 4205329
0.087648354 -0.35729074 1.223 4336392
0.089686684 -0.35292286 1.223 4532234
0.088521928 -0.31798002 1.223 5321009
0.087823071 -0.31192324 1.223 5583667
0.085027643 -0.30866191 1.223 5715019
0.081533343 -0.30749714 1.223 5518664
0.081533343 -0.30283809 1.223 5649723
0.080368586 -0.2970143 1.223 5847614
0.076874301 -0.30167335 1.223 5714754
0.076874301 -0.29817906 1.223 5847622
0.076874308 -0.29235527 1.223 5914939
0.072448209 -0.29188937 1.223 5585462
0.072215259 -0.28653145 1.223 5652283
0.067944467 -0.28148413 1.223 6044991
0.067167953 -0.2776016 1.223 5848107
0.062897161 -0.28070763 1.223 5847862
0.062897161 -0.27721334 1.223 5651762
0.061732393 -0.27371904 1.223 5652547
0.058238108 -0.27721334 1.223 5651501
0.057849858 -0.27294254 1.223 5783318
0.050084781 -0.40184289 1.223 4204088
0.050861288 -0.39796036 1.223 3811129
0.05299668 -0.27197191 1.223 6110766
0.051948391 -0.26812822 1.223 6636096
0.052414298 -0.26440096 1.223 6507358
0.047755256 -0.39718384 1.223 3479589
0.047755249 -0.27255428 1.223 6372666
0.047755249 -0.26789522 1.223 6635575
0.046202235 -0.26362446 1.223 6309442
0.041931443 -0.26323619 1.223 6177094
0.041931439 -0.2597419 1.223 6242630
0.036107641 -0.44260955 1.223 3613215
0.036107641 -0.43678573 1.223 3481117
0.036107641 -0.43329144 1.223 3744529
0.036107641 -0.42746764 1.223 4005643
0.036107641 -0.42164379 1.223 3611921
0.036107641 -0.41698477 1.223 3873557
0.036107641 -0.41232574 1.223 3741198
0.036107641 -0.40883145 1.223 4134177
0.037660647 -0.26362446 1.223 6244687
0.031448592 -0.47638765 1.223 3481125
0.031448592 -0.47405809 1.223 3480089
0.031448588 -0.4682343 1.223 3481122
0.031448588 -0.46357524 1.223 3480598
0.032613352 -0.45658666 1.223 3219254
0.032225098 -0.45153937 1.223 2957871
0.032225098 -0.44688034 1.223 3612714
0.033778116 -0.44260955 1.223 3743266
0.032613352 -0.43795049 1.223 3479078
0.033001605 -0.43290323 1.223 3350036
0.032613356 -0.42746764 1.223 3415306
0.032613352 -0.42164379 1.223 3414035
0.032613352 -0.41698477 1.223 3610660
0.033001605 -0.41193748 1.223 3412758
0.032225098 -0.40805495 1.223 3477794
0.032613344 -0.26440096 1.223 6308680
0.026789546 -0.48570573 1.223 3875360
0.027566055 -0.48182321 1.223 3482669
0.027954308 -0.47755238 1.223 3220020
0.029119069 -0.47172859 1.223 3350301
0.029119069 -0.46124572 1.223 3217192
0.027954306 -0.45658666 1.223 3284797
0.028342562 -0.4523159 1.223 3023921
0.029119069 -0.44843334 1.223 3221801
0.029119069 -0.42746764 1.223 2891275
0.027954306 -0.40650192 1.223 3085320
0.026789542 -0.40417239 1.223 3019531
0.026789537 -0.26673049 1.223 6110013
0.027954299 -0.26440096 1.223 6110274
0.022130502 -0.49735332 1.223 3022607
0.022130501 -0.49152952 1.223 3286306
0.024460021 -0.48687047 1.223 3482138
0.024460021 -0.4833762 1.223 3350812
0.023295259 -0.45775142 1.223 3872802
0.024460021 -0.4530924 1.223 3285534
0.023295257 -0.40650192 1.223 3020037
0.023295255 -0.40417239 1.223 2823176
0.022130495 -0.38553619 1.223 3414551
0.022130495 -0.38320667 1.223 3545892
0.02329525 -0.26673049 1.223 6504502
0.02329525 -0.26440096 1.223 6373181
0.017471457 -0.66042006 1.223 1311757
0.017471457 -0.65692574 1.223 1705480
0.017471457 -0.65110195 1.223 1771791
0.016306695 -0.64760762 1.223 1836806
0.016306695 -0.64294863 1.223 1771022
0.016306695 -0.63828957 1.223 1574406
0.015724314 -0.63188338 1.223 1509129
0.015141931 -0.62664193 1.223 1247768
0.015918437 -0.57267463 1.223 2495267
0.015141929 -0.56840384 1.223 2560269
0.015141929 -0.54627335 1.223 2823454
0.015141928 -0.54277909 1.223 2952736
0.016889071 -0.53753769 1.223 3346468
0.017471453 -0.53369397 1.223 2953252
0.017083198 -0.52724898 1.223 2888223
0.017005546 -0.5215804 1.223 3086119
0.017471451 -0.51715434 1.223 3415319
0.018636212 -0.51249522 1.223 3807500
0.017937355 -0.50760329 1.223 3347999
0.018636214 -0.50317717 1.223 3283507
0.018636214 -0.49851811 1.223 3415570
0.01980097 -0.40650192 1.223 3085063
0.017471446 -0.40339589 1.223 3084819
0.015141922 -0.39951333 1.223 3543591
0.019800968 -0.38553619 1.223 3545882
0.019800968 -0.38320667 1.223 3677231
0.015141916 -0.27255428 1.223 5783368
0.01747144 -0.26789525 1.223 6177601
0.018636201 -0.26440096 1.223 6308416
0.012812409 -0.62664193 1.223 985889
0.012812409 -0.62198287 1.223 1641229
0.010482883 -0.59519333 1.223 2034945
0.010482883 -0.5928638 1.223 2166273
0.010482882 -0.58587521 1.223 2426881
0.012812407 -0.58121622 1.223 2623785
0.012812407 -0.57772195 1.223 2754075
0.012812407 -0.57422763 1.223 1904150
0.012812407 -0.56840384 1.223 2625800
0.012035899 -0.56258005 1.223 2166788
0.012035899 -0.55636799 1.223 2166044
0.012035899 -0.55170894 1.223 1708576
0.011259389 -0.54704988 1.223 2430230
0.012812405 -0.54277909 1.223 2887971
0.012812405 -0.53812003 1.223 3019573
0.012812405 -0.53346097 1.223 2234146
0.012812405 -0.52880192 1.223 2364435
0.011647637 -0.39834857 1.223 3873825
0.011259382 -0.39330131 1.223 3545876
0.011647636 -0.38670096 1.223 3610912
0.011647636 -0.38320667 1.223 3151900
0.011259377 -0.27682507 1.223 5388100
0.011647631 -0.27255428 1.223 5717321
0.011647631 -0.26789522 1.223 5980744
0.010482868 -0.26323619 1.223 6439235
0.0081533613 -0.61150002 1.223 1706499
0.0081533613 -0.60800576 1.223 1705733
0.0069885985 -0.60334671 1.223 1378059
0.0081533603 -0.59868765 1.223 1639953
0.0081533603 -0.5928638 1.223 1967873
0.0073768436 -0.39796036 1.223 3284504
0.006755637 -0.39252478 1.223 2889227
0.0069885887 -0.38670096 1.223 2821645
0.0069885887 -0.3820419 1.223 2560784
0.0058238264 -0.37854761 1.223 3151114
0.0069885841 -0.27721334 1.223 5192006
0.0069885841 -0.27255428 1.223 5651011
0.007376838 -0.26828349 1.223 6045506
0.0019412871 -0.39174828 1.223 2691848
0.0023295409 -0.38670096 1.223 2559747
0.0027177946 -0.38165367 1.223 2365702
0.0034943023 -0.37854761 1.223 3087111
0.0011647742 -0.28070763 1.223 5583429
0.00271779 -0.2776016 1.223 5585987
0.0034942976 -0.27255428 1.223 5913142
0.0023295358 -0.26905999 1.223 6046037
-0.0019412528 -0.39097175 1.223 2560777
-0.0023295069 -0.38670099 1.223 3085314
-0.003494269 -0.38087717 1.223 3611652
-0.0034942727 -0.2970143 1.223 4993065
-0.0034942729 -0.29119051 1.223 4994862
-0.0019412574 -0.28691971 1.223 5257515
-0.0019412576 -0.28226066 1.223 5518907
-0.0011647497 -0.2783781 1.223 5781572
-0.0072215074 -0.39205888 1.223 2233866
-0.0069885552 -0.38670099 1.223 2889996
-0.0069885589 -0.29817906 1.223 4728883
-0.0069885594 -0.29235527 1.223 4731449
-0.0073768138 -0.28691971 1.223 5193517
-0.0073768143 -0.28226066 1.223 5652020
-0.011647602 -0.39718384 1.223 3412244
