# .PCD v0.7 - Point Cloud Data file format
VERSION 0.7
FIELDS x y z rgba
SIZE 4 4 4 4
TYPE F F F U
COUNT 1 1 1 1
WIDTH 1151
HEIGHT 1
VIEWPOINT 0 0 0 1 0 0 0
POINTS 1151
DATA ascii
-0.056197241 -0.087050483 -1.1570001 7285299
-0.053993434 -0.10357906 -1.1570001 7023897
-0.053993434 -0.092560008 -1.1570001 7352613
-0.053993434 -0.088152386 -1.1570001 7482673
-0.053111915 -0.083083622 -1.1570001 7679533
-0.052891526 -0.077133335 -1.1570001 7353124
-0.05289153 -0.073827624 -1.1570001 7484723
-0.048851211 -0.072358415 -1.1570001 7614506
-0.048483908 -0.067216203 -1.1570001 7417627
-0.048851211 -0.062073976 -1.1570001 7548969
-0.049585812 -0.057299051 -1.1570001 7351850
-0.048851211 -0.052524135 -1.1570001 7286035
-0.046941243 -0.048704196 -1.1570001 7286557
-0.045178197 -0.04297429 -1.1570001 7351346
-0.045178201 -0.036362864 -1.1570001 7154974
-0.045178201 -0.033057149 -1.1570001 6959658
-0.046280108 -0.027547626 -1.1570001 7352631
-0.047382008 -0.022038097 -1.1570001 7811386
-0.046280105 -0.018732384 -1.1570001 7680833
-0.042974383 -0.045178104 -1.1570001 7483179
-0.042239789 -0.041505083 -1.1570001 7547432
-0.041872483 -0.037464764 -1.1570001 7286819
-0.042239789 -0.032689847 -1.1570001 6828330
-0.042974386 -0.027547622 -1.1570001 7221294
-0.042974386 -0.022038097 -1.1570001 7417145
-0.041872483 -0.017630478 -1.1570001 7547706
-0.041872483 -0.01322286 -1.1570001 7746861
-0.041505184 -0.0091825426 -1.1570001 7812653
-0.038566768 -0.016528575 -1.1570001 7349810
-0.037097566 -0.006244129 -1.1570001 7352888
-0.038566768 -0.003305716 -1.1570001 7222325
-0.03415915 -0.0055095255 -1.1570001 7483451
-0.032689948 -0.0025711127 -1.1570001 7680070
-0.033057246 0.0022038082 -1.1570001 8139343
-0.032836866 0.0077133323 -1.1570001 7944767
-0.031955339 0.012120953 -1.1570001 7619358
-0.029016929 -0.0018365092 -1.1570001 7679037
-0.029751532 0.0022038082 -1.1570001 8008517
-0.029016929 0.0084479367 -1.1570001 7749194
-0.026996769 0.012671906 -1.1570001 7683642
-0.022038195 0.014324761 -1.1570001 6171425
0.0033056007 0.28759718 -1.1570001 10574672
0.0033056005 0.29200476 -1.1570001 9785143
0.006244014 0.28833178 -1.1570001 10707017
0.0066113151 0.29310668 -1.1570001 9656359
0.034158934 0.2986162 -1.1570001 9987131
0.034158934 0.30082002 -1.1570001 7474689
0.037464652 0.29751432 -1.1570001 10181190
0.04187227 0.29751432 -1.1570001 9586986
0.040770363 0.30082002 -1.1570001 6228737
0.047381796 0.29420859 -1.1570001 10644790
0.048116401 0.29714701 -1.1570001 5977097
0.052891321 0.29200476 -1.1570001 9790803
0.058400843 0.28980097 -1.1570001 10116158
0.056197032 0.29200476 -1.1570001 8476770
0.06207386 0.28686258 -1.1570001 9000266
0.069419898 -0.04628 -1.1570001 5050124
0.069419883 0.2765781 -1.1570001 8539161
0.066114172 0.28208762 -1.1570001 8932910
0.07382752 -0.053993333 -1.1570001 5118234
0.071623705 -0.04628 -1.1570001 5116678
0.07162369 0.27437431 -1.1570001 8406558
0.07162369 0.2765781 -1.1570001 8472083
0.078235134 -0.057299044 -1.1570001 4919303
0.076031327 -0.053993333 -1.1570001 4986127
0.083965041 -0.066775434 -1.1570001 4524545
0.08374466 -0.061706666 -1.1570001 4721674
0.081173554 -0.05766635 -1.1570001 5050372
0.089254186 -0.076031424 -1.1570001 3869957
0.088152282 -0.072725706 -1.1570001 4198657
0.087050378 -0.065012373 -1.1570001 4395265
0.092559904 -0.078235231 -1.1570001 4196615
0.095865615 -0.080439046 -1.1570001 4130817
0.095865615 -0.078235231 -1.1570001 4261889
0.10468087 -0.13333048 -1.1570001 3802626
0.10247706 -0.12818828 -1.1570001 3605505
0.10027324 -0.12231143 -1.1570001 3343361
0.10027324 -0.1168019 -1.1570001 3408899
0.10027324 -0.11239428 -1.1570001 3474443
0.10027324 -0.10798667 -1.1570001 3409167
0.10908848 -0.14214572 -1.1570001 4529689
0.10761927 -0.13773811 -1.1570001 3935497
0.10688467 -0.13112667 -1.1570001 3671809
0.11349609 -0.14434953 -1.1570001 4662302
0.11790372 -0.14434953 -1.1570001 5056268
0.12451515 -0.15096095 -1.1570001 5122823
0.12304594 -0.14728795 -1.1570001 5253896
0.12231134 -0.14434955 -1.1570001 5253891
0.12671895 -0.15536858 -1.1570001 5124617
0.12745357 -0.15169556 -1.1570001 5254920
0.12671895 -0.14765525 -1.1570001 5385480
0.15867421 -0.19834286 -1.1570001 5715756
0.16418372 -0.20605619 -1.1570001 6240027
0.16197991 -0.20275049 -1.1570001 6109471
0.16197991 -0.19944477 -1.1570001 5913635
0.16785675 -0.21193302 -1.1570001 5845783
0.16638754 -0.2071581 -1.1570001 5977118
0.17226437 -0.22295205 -1.1570001 5912357
0.17299898 -0.21817714 -1.1570001 5911310
0.17189707 -0.2126676 -1.1570001 5713688
0.17630467 -0.2302981 -1.1570001 5585199
0.17593737 -0.22735968 -1.1570001 5715226
0.17520277 -0.22258475 -1.1570001 5714957
0.17520277 -0.21817714 -1.1570001 5909255
0.17520277 -0.21376951 -1.1570001 5712668
0.18254882 -0.25380543 -1.1570001 5318669
0.18622182 -0.26335526 -1.1570001 5450005
0.18622182 -0.25454003 -1.1570001 5515016
-0.085140094 -0.31512856 -1.161 5252898
-0.085140094 -0.31291714 -1.161 4664608
-0.080717228 -0.41795999 -1.161 2231311
-0.081270084 -0.41187859 -1.161 1508611
-0.081454381 -0.40727144 -1.161 1969156
-0.080717228 -0.40248001 -1.161 1837825
-0.081822947 -0.39805716 -1.161 2359835
-0.080717228 -0.39252853 -1.161 2230554
-0.080717228 -0.38699999 -1.161 2951176
-0.081454381 -0.38220856 -1.161 1967881
-0.082191519 -0.37778574 -1.161 2753808
-0.081822947 -0.37262577 -1.1610001 1966877
-0.081822947 -0.36820287 -1.161 3146771
-0.080717228 -0.35272285 -1.161 2494484
-0.080717228 -0.34166571 -1.161 1972239
-0.080717228 -0.33503142 -1.161 3283499
-0.080717228 -0.33171427 -1.161 3480867
-0.082928665 -0.3261857 -1.161 4203804
-0.082928665 -0.32286859 -1.161 4204578
-0.082928665 -0.31733999 -1.161 4467741
-0.080717228 -0.29522571 -1.161 5125153
-0.076294377 -0.42127714 -1.161 3479307
-0.077400088 -0.41795999 -1.161 3021839
-0.078505799 -0.41353714 -1.161 2826004
-0.078505799 -0.38699999 -1.161 3871759
-0.078505799 -0.38368285 -1.161 3676433
-0.078505799 -0.37925997 -1.161 3675150
-0.078505799 -0.34608856 -1.161 1967882
-0.078505799 -0.28637999 -1.161 4794929
-0.076294377 -0.27753431 -1.161 4990517
-0.07703153 -0.17212287 -1.161 5184269
-0.07703153 -0.16843715 -1.161 5184030
-0.077178955 -0.16298229 -1.1610001 5382158
-0.076294385 -0.15811713 -1.161 5775114
-0.076294385 -0.15369429 -1.161 5842978
-0.071871512 -0.43012285 -1.161 3153958
-0.074082948 -0.42570001 -1.161 3282197
-0.074082948 -0.42238283 -1.161 4200215
-0.074082948 -0.27532285 -1.161 5782322
-0.074082948 -0.27200574 -1.161 5386528
-0.074082948 -0.26758286 -1.161 5059368
-0.074082948 -0.26315999 -1.161 4008487
-0.074082948 -0.25984284 -1.161 4271162
-0.072977237 -0.25210285 -1.161 5518895
-0.072608672 -0.24804859 -1.161 6507608
-0.072608672 -0.2436257 -1.161 5257793
-0.072424382 -0.23717572 -1.161 5323059
-0.071871527 -0.23330572 -1.161 5654586
-0.071871527 -0.20676857 -1.161 4984090
-0.071871527 -0.20345142 -1.161 5049103
-0.071871527 -0.19681714 -1.161 5049857
-0.071871527 -0.1935 -1.161 5246721
-0.071871527 -0.18244286 -1.161 5117955
-0.072977237 -0.17580856 -1.161 5249029
-0.07334581 -0.17286001 -1.161 5182990
-0.074082956 -0.16806857 -1.161 5314836
-0.074082956 -0.16143429 -1.161 5578508
-0.074082956 -0.15701142 -1.161 5709583
-0.074082956 -0.15369429 -1.161 5907737
-0.072977237 -0.1481657 -1.161 6104615
-0.073198378 -0.14219485 -1.1610001 6302245
-0.072608672 -0.13674001 -1.161 6433863
-0.072977237 -0.13268572 -1.161 6630455
-0.072977237 -0.12826285 -1.161 6894379
-0.072608672 -0.12420858 -1.161 7090456
-0.065237224 -0.44781429 -1.161 3084042
-0.066342942 -0.43786287 -1.161 3214866
-0.069660082 -0.43344003 -1.161 3675165
-0.069660097 -0.2465743 -1.161 5525077
-0.069660097 -0.24325714 -1.161 5191483
-0.069660097 -0.23993999 -1.161 4662831
-0.069660097 -0.23109429 -1.161 5522739
-0.069660097 -0.22888285 -1.161 5456960
-0.066895813 -0.22169572 -1.161 6243123
-0.065237239 -0.21672 -1.161 5641242
-0.06634295 -0.21229714 -1.161 5115413
-0.067006379 -0.20765315 -1.1610001 5246225
-0.067448668 -0.20234571 -1.1610001 5180426
-0.067448668 -0.19681714 -1.1610001 5115409
-0.067448668 -0.19239429 -1.1610001 5116932
-0.067448668 -0.18797144 -1.1610001 4855558
-0.068080507 -0.18275878 -1.1610001 4986886
-0.069660097 -0.17802 -1.161 4595460
-0.069107242 -0.12218143 -1.161 7483424
-0.067448668 -0.11720573 -1.1610001 7023145
-0.066342957 -0.11278285 -1.161 7351614
-0.066121817 -0.10725429 -1.1610001 6959145
-0.065237239 -0.10172571 -1.161 7022118
-0.060814366 -0.45334285 -1.161 1905171
-0.06302581 -0.21672 -1.161 4852259
-0.062288668 -0.21192858 -1.161 5180705
-0.061920092 -0.20787428 -1.161 5575189
-0.061920095 -0.20234573 -1.1610001 5639698
-0.062288668 -0.19644856 -1.161 5246468
-0.06302581 -0.19128856 -1.161 5051393
-0.06302581 -0.11167714 -1.161 7417152
-0.061920099 -0.10725429 -1.1610001 7089441
-0.061920095 -0.10172571 -1.161 7219496
-0.061920095 -0.097302862 -1.161 6892318
-0.061551526 -0.093248568 -1.161 6959389
-0.061367236 -0.087351426 -1.161 6959655
-0.060814381 -0.081822857 -1.161 7090976
-0.056391507 -0.46882287 -1.161 5057047
-0.058602951 -0.20676857 -1.161 5709079
-0.05786581 -0.20308289 -1.161 6038042
-0.058602955 -0.10504285 -1.161 7025178
-0.058602955 -0.10172571 -1.161 7090990
-0.057497241 -0.097302854 -1.161 6894354
-0.057497241 -0.092879996 -1.161 7156244
-0.057718385 -0.087351426 -1.1610001 7156012
-0.057497241 -0.081822857 -1.161 7156778
-0.057497241 -0.077399999 -1.161 7158307
-0.057128672 -0.073345721 -1.161 6764581
-0.056391526 -0.06634286 -1.161 7090476
-0.056391526 -0.061920002 -1.161 7352885
-0.056391526 -0.057497147 -1.161 7353410
-0.056391526 -0.053074289 -1.161 7155225
-0.056391526 -0.049757145 -1.161 6565901
-0.054180078 -0.47435144 -1.161 5452058
-0.053074382 -0.07187143 -1.161 7616036
-0.053074382 -0.067448579 -1.1610001 7418144
-0.053074382 -0.061920002 -1.161 7614511
-0.053074382 -0.057497147 -1.161 7352130
-0.053074382 -0.053074289 -1.161 7090964
-0.052705813 -0.049020004 -1.161 7092232
-0.051968668 -0.043122862 -1.161 7156517
-0.051968671 -0.037594292 -1.161 7157272
-0.051968671 -0.033171434 -1.161 7484704
-0.052853245 -0.027200572 -1.1610001 7353625
-0.052705817 -0.022482859 -1.161 7746853
-0.053074386 -0.017691432 -1.161 7811395
-0.051968671 -0.013268573 -1.161 7941673
-0.051968671 -0.0099514304 -1.161 8205856
-0.048098668 -0.045887146 -1.161 7287335
-0.047988102 -0.041796003 -1.1610001 7220277
-0.047988102 -0.037815437 -1.1610001 7154976
-0.048651528 -0.033171434 -1.161 7221295
-0.049757246 -0.027642859 -1.161 7352894
-0.048098672 -0.017138574 -1.161 7681864
-0.047545817 -0.013268573 -1.1610001 7747617
-0.047269389 -0.0080164298 -1.1610001 7616022
-0.04238582 -0.0062657162 -1.161 7549991
-0.037225816 -0.0018428587 -1.161 7354171
-0.037594385 0.0022114269 -1.161 7681852
-0.037594389 0.0077399979 -1.1610001 7879740
-0.037594389 0.012162855 -1.161 7880754
-0.034277245 -0.0011057158 -1.161 7812422
-0.034277245 0.0077399984 -1.161 8010558
-0.033171531 0.013268569 -1.161 7815445
-0.032065812 0.016585713 -1.161 7945512
-0.028748672 0.014374285 -1.161 7684399
-0.027642958 0.017691428 -1.1610001 8010549
-0.026168676 0.022482855 -1.161 7945256
-0.022114387 0.017691428 -1.161 5974049
-0.023220101 0.02100857 -1.161 6632731
0.038699888 0.29964858 -1.161 9983277
0.036488455 0.3029657 -1.161 5768961
0.043122742 0.29964858 -1.161 8257817
0.043122742 0.30186 -1.161 4915457
0.053442746 0.29596287 -1.161 8009500
0.058602747 0.29301429 -1.161 7293506
0.056391317 0.29633141 -1.161 5245977
0.061919887 0.29080287 -1.161 9259314
0.069659896 -0.036488567 -1.161 4393999
0.069659881 0.27974573 -1.161 8670226
0.067448452 0.28416857 -1.161 9064234
0.065237023 0.28748572 -1.161 7946583
0.074082755 -0.051968567 -1.161 5182721
0.074082762 -0.047545709 -1.161 5116929
0.072608471 -0.04164857 -1.161 4918020
0.071871325 -0.038699999 -1.161 4656911
0.07187131 0.27974573 -1.161 8668937
0.077768467 -0.052705713 -1.161 4920066
0.076294184 -0.047545712 -1.161 5051649
0.082928471 -0.056391425 -1.161 4853761
0.081454188 -0.053442854 -1.161 4657153
0.089562751 -0.071871422 -1.161 4265729
0.088678189 -0.067890853 -1.1610001 4198914
0.08845704 -0.061919995 -1.161 4460564
0.086798459 -0.058049999 -1.161 4722699
0.092879891 -0.076294281 -1.161 4263172
0.092879891 -0.072977133 -1.161 4199170
0.091774181 -0.069659993 -1.161 4133889
0.098408476 -0.10061999 -1.161 4195076
0.098408476 -0.097302847 -1.161 4457494
0.098408476 -0.092879988 -1.161 3867912
0.096197039 -0.076294281 -1.161 4391937
0.096197039 -0.074082851 -1.161 4263426
0.10283133 -0.12715714 -1.161 3474177
0.10283134 -0.12273429 -1.161 3474689
0.10283133 -0.11720571 -1.161 3540485
0.10283133 -0.11278284 -1.161 3540239
0.10172562 -0.10725427 -1.161 3474954
0.1006199 -0.10283142 -1.161 3737094
0.10946562 -0.13710858 -1.161 3673098
0.10725419 -0.13379143 -1.161 3802628
0.10651705 -0.12789428 -1.161 3409409
0.1057799 -0.12420858 -1.161 3278593
0.11241419 -0.1419 -1.161 4201752
0.1160999 -0.14484857 -1.161 4922901
0.12936847 -0.16032857 -1.161 5189384
0.12936847 -0.15701142 -1.161 5255179
0.12936847 -0.15369429 -1.161 5386249
0.13157989 -0.15369429 -1.161 5517321
0.16475135 -0.20234571 -1.161 6305565
0.16253991 -0.19792287 -1.161 6043938
0.16917419 -0.20787428 -1.161 5976350
0.16696277 -0.20234573 -1.161 6107675
0.17138563 -0.20787427 -1.161 5778719
0.18465421 -0.25210285 -1.161 5515530
0.18686563 -0.26205429 -1.161 5515284
0.18686563 -0.25873715 -1.161 5515025
0.18686563 -0.25320855 -1.161 5515019
-0.090180092 -0.41082001 -1.169 4337426
-0.090180092 -0.40636665 -1.169 4402466
-0.090180092 -0.39857334 -1.169 4666897
-0.090180099 -0.18147334 -1.169 5182465
-0.090180099 -0.17813334 -1.169 5248781
-0.090180099 -0.17256668 -1.169 5380626
-0.090922326 -0.1666289 -1.169 5775382
-0.090180099 -0.16254666 -1.169 5841439
-0.090180099 -0.15809333 -1.169 6038290
-0.090180099 -0.15475333 -1.169 6234625
-0.090180099 -0.14807333 -1.169 6235963
-0.090180099 -0.14139333 -1.169 6368816
-0.090180099 -0.13916667 -1.169 6565442
-0.086840093 -0.42306668 -1.169 2165286
-0.087062761 -0.41794536 -1.169 2164504
-0.086693428 -0.41233811 -1.1670001 2100497
-0.087172948 -0.40809953 -1.1660001 2823191
-0.087375104 -0.40247977 -1.1650001 2887206
-0.086791202 -0.39723206 -1.1683335 2820393
-0.086840093 -0.39189333 -1.169 3084325
-0.086691521 -0.38677526 -1.1670001 3411751
-0.086840093 -0.38410002 -1.169 3217443
-0.085433431 -0.37723809 -1.1650001 3543594
-0.085726753 -0.32731998 -1.169 4529177
-0.085580096 -0.32231238 -1.1670001 4663590
-0.085433431 -0.31843334 -1.1650001 4991013
-0.085726753 -0.30394 -1.169 5386298
-0.086840101 -0.19038001 -1.169 5245449
-0.086468995 -0.1866689 -1.169 5049618
-0.086766765 -0.18243144 -1.1680001 5182216
-0.0866182 -0.17767715 -1.166 5315334
-0.086618192 -0.17323524 -1.1660001 5186565
-0.086542964 -0.16753811 -1.1650001 5513746
-0.086766765 -0.16240667 -1.1680001 5776431
-0.086693436 -0.15782286 -1.1670001 5908495
-0.086791217 -0.1524384 -1.1683334 6103839
-0.086766772 -0.14683333 -1.1680001 6301991
-0.086840101 -0.14250667 -1.169 6500392
-0.086840101 -0.13805333 -1.169 6762289
-0.086840101 -0.13471334 -1.169 6629160
-0.081273422 -0.43086001 -1.169 2033665
-0.082665168 -0.42740223 -1.1676668 2033429
-0.082176283 -0.42309147 -1.166 1573914
-0.08321438 -0.41718096 -1.1650001 1377300
-0.08321438 -0.41385242 -1.1650001 197900
-0.08321438 -0.40719527 -1.1650001 984845
-0.083214387 -0.40275717 -1.1650002 1115158
-0.08321438 -0.39610001 -1.1650001 2032422
-0.08321438 -0.39277145 -1.1650001 1049890
-0.083214387 -0.38722384 -1.1650002 1966872
-0.080995329 -0.38056669 -1.1650001 2820097
-0.082386762 -0.36739999 -1.169 2688013
-0.082386762 -0.36294666 -1.169 2820131
-0.082662635 -0.35845682 -1.1676668 2821899
-0.082567394 -0.35211906 -1.1663334 2825497
-0.081134379 -0.34676763 -1.1670001 2429708
-0.083500095 -0.34402001 -1.169 3676437
-0.083500095 -0.33956668 -1.169 4856095
-0.083500095 -0.33288667 -1.169 4269095
-0.08321438 -0.3295286 -1.1650001 4268322
-0.08321438 -0.30511907 -1.1650001 4598305
-0.080995329 -0.29291433 -1.1650001 5320249
-0.081273437 -0.20596667 -1.169 4464134
-0.081273437 -0.20262668 -1.169 4920068
-0.081273437 -0.19817334 -1.169 4919556
-0.082609445 -0.19305199 -1.169 5049349
-0.0819401 -0.1871945 -1.1658 5049879
-0.082104862 -0.18196192 -1.1650001 5313293
-0.082104862 -0.17752382 -1.1650001 5511426
-0.082104862 -0.17308572 -1.1650001 5251588
-0.082104862 -0.16753811 -1.1650001 5315855
-0.082104862 -0.16199049 -1.1650001 5775889
-0.082104862 -0.15755239 -1.1650001 5842696
-0.082104862 -0.15311429 -1.1650001 5907993
-0.082104862 -0.14756668 -1.1650001 6302232
-0.082104862 -0.14201906 -1.1650001 6695701
-0.082386769 -0.13805333 -1.169 6958880
-0.082386769 -0.13248667 -1.1690001 6761761
-0.081273437 -0.12803333 -1.169 6893107
-0.076820083 -0.4364267 -1.169 1901842
-0.077801988 -0.43123239 -1.1670001 2229769
-0.077296913 -0.42790636 -1.1650002 2492682
-0.078036606 -0.42420799 -1.1650002 2558734
-0.078776285 -0.34950003 -1.1650001 1967115
-0.077801995 -0.28230476 -1.1670001 4662329
-0.07682009 -0.27721998 -1.169 4991524
-0.07682009 -0.27388 -1.169 4992536
-0.076557234 -0.26739526 -1.1650002 4993835
-0.07738708 -0.26177621 -1.1663334 4074555
-0.07738708 -0.25807524 -1.1663334 4271148
-0.077802002 -0.25229239 -1.1670001 4205617
-0.077553049 -0.2473183 -1.1666001 4863269
-0.077802002 -0.24229145 -1.1670001 4926511
-0.077387087 -0.23808096 -1.1663334 5654578
-0.076820098 -0.23491335 -1.169 6179142
-0.077710763 -0.21220134 -1.169 4590378
-0.077802002 -0.20672572 -1.1670001 4396052
-0.077867717 -0.20245239 -1.1680001 4920078
-0.077867717 -0.19800478 -1.1680001 4984837
-0.077666767 -0.19305715 -1.1650001 5049602
-0.077666767 -0.18750954 -1.1650001 5115398
-0.077666767 -0.18196192 -1.1650001 5248004
-0.077666767 -0.17752382 -1.1650001 5314817
-0.078776293 -0.17419524 -1.1650001 5184262
-0.078776293 -0.16753811 -1.1650001 5053469
-0.078776293 -0.16088097 -1.1650001 6037767
-0.078036614 -0.15718256 -1.1650002 5842190
-0.078036614 -0.15274446 -1.1650002 5908518
-0.077666767 -0.14756668 -1.1650001 6236969
-0.077666767 -0.14201906 -1.1650001 6433815
-0.077734388 -0.1376981 -1.166 6630951
-0.077666767 -0.13314286 -1.1650001 6696498
-0.077756934 -0.12774003 -1.1663334 6959409
-0.077933431 -0.12246667 -1.169 6959914
-0.077933431 -0.11801334 -1.169 7221797
-0.076820098 -0.11244667 -1.169 7221537
-0.073026441 -0.43778321 -1.1676668 3017754
-0.073598497 -0.43308419 -1.1650002 3084580
-0.074338183 -0.42938575 -1.1650001 3216402
-0.074338198 -0.25186193 -1.1650001 6245428
-0.074338198 -0.24742381 -1.1650001 6307915
-0.074338198 -0.24187621 -1.1650001 4925492
-0.074338198 -0.23854764 -1.1650001 5390128
-0.073354386 -0.23228666 -1.1670001 5983300
-0.070140101 -0.22712001 -1.169 6311761
-0.070140101 -0.22266668 -1.169 8541479
-0.072366767 -0.21784222 -1.169 5182217
-0.073228672 -0.21302858 -1.1650001 4000804
-0.073783435 -0.20803572 -1.1650001 4853021
-0.073598512 -0.20156352 -1.1650002 4983563
-0.074338198 -0.19749525 -1.1650001 5049091
-0.073598512 -0.19268732 -1.1650002 5376769
-0.07345058 -0.18795335 -1.1650001 5115394
-0.073598512 -0.18233177 -1.1650002 5313794
-0.073228672 -0.17863335 -1.1650001 5380867
-0.074338198 -0.15200476 -1.1650001 6039333
-0.074338198 -0.14978573 -1.1650001 6105393
-0.074338198 -0.13869049 -1.1650001 6630962
-0.073598512 -0.12167778 -1.1650002 7025182
-0.073228672 -0.11760953 -1.1650001 7024427
-0.073228672 -0.11317144 -1.1650001 7155238
-0.073313758 -0.10774572 -1.1663334 7024682
-0.073418193 -0.10233811 -1.1680001 7024161
-0.072366767 -0.097973332 -1.169 7154204
-0.071030766 -0.091961339 -1.169 7220007
-0.071253434 -0.086840004 -1.169 6893627
-0.071253441 -0.082386672 -1.169 7024958
-0.070882335 -0.078304447 -1.169 7090731
-0.070140108 -0.074593335 -1.169 7156519
-0.065686747 -0.45535332 -1.169 3741700
-0.06680008 -0.45201331 -1.169 3150598
-0.066279136 -0.44320416 -1.1663334 3477262
-0.069900088 -0.43826193 -1.1650001 3608849
-0.068420738 -0.21709685 -1.1650002 5972237
-0.069900103 -0.21302858 -1.1650001 4328216
-0.069900103 -0.2097 -1.1650001 5114905
-0.069900103 -0.11317144 -1.1650001 7089457
-0.06934534 -0.10762382 -1.1650001 6893612
-0.068790577 -0.1020762 -1.1650001 7023909
-0.067681052 -0.0976381 -1.1650001 7154219
-0.066571526 -0.093200006 -1.1650001 7155241
-0.066610262 -0.087701283 -1.1656668 7024433
-0.066687725 -0.082245722 -1.1670001 7089717
-0.066687725 -0.077800006 -1.1670001 7417635
-0.067022778 -0.072811998 -1.169 7222542
-0.066487536 -0.067373529 -1.1674001 7288089
-0.06568677 -0.062346671 -1.169 7680029
-0.06568677 -0.05789334 -1.169 7090215
-0.06568677 -0.053440005 -1.169 7156258
-0.066800103 -0.046760004 -1.169 7091744
-0.06568677 -0.042306673 -1.169 7287571
-0.06568677 -0.037853334 -1.169 7486239
-0.063242942 -0.45601431 -1.1650001 2955521
-0.063242942 -0.45379528 -1.1650001 2562310
-0.063242957 -0.09209048 -1.1650001 6959143
-0.063242957 -0.087652385 -1.1650001 6959650
-0.063242964 -0.082104765 -1.1650001 7089687
-0.062133435 -0.07766667 -1.1650001 7221791
-0.062133431 -0.073228575 -1.1650001 7025681
-0.062133431 -0.067680955 -1.1650001 7157030
-0.06218772 -0.06218572 -1.166 7353649
-0.062242005 -0.057794292 -1.1670001 7025200
-0.06234676 -0.052326668 -1.1690001 7351567
-0.062294383 -0.046720956 -1.168 7023891
-0.062294386 -0.042269532 -1.1680001 7220755
-0.062346768 -0.037853334 -1.169 7353390
-0.061975654 -0.033771116 -1.169 7419919
-0.061233431 -0.017813334 -1.169 8074541
-0.062346768 -0.013360003 -1.169 8205607
-0.061233431 -0.0066800034 -1.169 7878694
-0.058804862 -0.07211905 -1.1650001 6699047
-0.058250099 -0.068235718 -1.1650001 6959660
-0.058804862 -0.062133338 -1.1650001 7287096
-0.058804862 -0.057695244 -1.1650001 7156538
-0.058804862 -0.053257149 -1.1650001 7351581
-0.057917245 -0.04726572 -1.1650001 6958868
-0.05769534 -0.042161912 -1.1650001 7088914
-0.05769534 -0.037723813 -1.1650001 7222808
-0.057695344 -0.033285718 -1.1650001 7355151
-0.05769534 -0.0277381 -1.1650001 7551506
-0.05769534 -0.02219048 -1.1650001 7747881
-0.05769534 -0.017752385 -1.1650001 7877426
-0.057695344 -0.013314289 -1.1650001 8007477
-0.057728995 -0.007769845 -1.1656667 7812658
-0.056780104 -0.0033400024 -1.169 7484974
-0.053627081 -0.046230167 -1.1650002 7091723
-0.053627092 -0.041792069 -1.1650002 7089421
-0.054366771 -0.037723813 -1.1650001 7157515
-0.054366771 -0.033285718 -1.1650001 7420176
-0.054366771 -0.029957145 -1.1650001 7420183
-0.054366771 -0.021080956 -1.1650001 7812141
-0.054366771 -0.013314289 -1.1650001 7875902
-0.053479154 -0.00732286 -1.1650001 7878692
-0.051881433 -0.0024493358 -1.169 7813141
-0.050842322 0.0018555532 -1.169 7813418
-0.050842322 0.0063088876 -1.169 7944730
-0.050100099 0.012246666 -1.169 7814931
-0.050100099 0.017813331 -1.169 8076054
-0.050100099 0.021153331 -1.169 8207402
-0.049928673 -0.0055476218 -1.1650001 7616791
-0.046641052 -0.0022200022 -1.166 7617037
-0.046721052 0.0022257122 -1.1680001 7813154
-0.046760101 0.0066799987 -1.169 8140330
-0.046760105 0.012246666 -1.1690001 7879982
-0.046760101 0.017813331 -1.169 8010795
-0.046388991 0.021895554 -1.169 8142370
-0.045646768 0.030059999 -1.169 8537913
-0.042162009 -0.0022190497 -1.1650001 7419429
-0.042162009 0.002219046 -1.1650001 7681836
-0.042186771 0.0077711102 -1.1656667 7748152
-0.042234387 0.013339046 -1.1670001 7617592
-0.042236291 0.017782856 -1.1670001 8010012
-0.042236291 0.022228571 -1.1670001 8011289
-0.04199953 0.027330857 -1.1666001 8142892
-0.042501248 0.032709908 -1.1682001 8471611
-0.041193437 0.03785333 -1.169 8603720
-0.041193437 0.042306669 -1.169 8865085
-0.041193441 0.04676 -1.169 8801059
-0.03772391 0.014423809 -1.1650001 8076328
-0.03772391 0.017752381 -1.1650001 8141605
-0.03772391 0.022190476 -1.1650001 7945003
-0.037723914 0.027738096 -1.1650001 8011071
-0.03772391 0.033285715 -1.1650001 8274487
-0.037853431 0.03785333 -1.169 8472133
-0.037853435 0.042306669 -1.169 8865093
-0.037853435 0.04676 -1.169 8734769
-0.036740102 0.052326668 -1.169 8602415
-0.036740102 0.056780003 -1.169 8732981
-0.034395341 0.014423809 -1.1650001 7946516
-0.033655658 0.018122222 -1.1650002 8010298
-0.033285815 0.022190476 -1.1650001 8009786
-0.033285819 0.027738096 -1.1650001 7944758
-0.033285815 0.033285715 -1.1650001 8142138
-0.033315342 0.037757143 -1.166 8469836
-0.033400103 0.042306669 -1.169 8406866
-0.032286774 0.046760004 -1.1690001 8538939
-0.032286771 0.052326668 -1.169 8603687
-0.032286771 0.057893336 -1.1690001 8668195
-0.031173438 0.062346667 -1.169 8471100
-0.029217567 0.021820636 -1.1650002 8075829
-0.027738201 0.027738094 -1.1650001 7619108
-0.027738199 0.033285718 -1.1650001 7552540
-0.027768677 0.037768256 -1.1663334 7682597
-0.027799152 0.042258412 -1.1676668 7420982
-0.026923725 0.047393717 -1.1682001 6701115
-0.026441822 0.052661527 -1.1666001 6304791
-0.0266982 0.057844762 -1.168 6434323
-0.026720105 0.062346663 -1.169 6369328
-0.026720107 0.065686665 -1.169 6371375
-0.021820743 0.022560317 -1.1650002 5445916
-0.022412486 0.027294286 -1.1650001 5316620
-0.023300106 0.033285715 -1.1650001 5580560
-0.023340106 0.037790477 -1.1670001 5443624
-0.022637885 0.042677782 -1.169 4984868
-0.022266772 0.04676 -1.169 5119242
-0.023353439 0.052264445 -1.1676668 5183492
-0.023380104 0.057893336 -1.169 5446415
-0.018862011 0.023300001 -1.1650001 4852256
-0.016700109 0.19149333 -1.169 5048073
-0.017813444 0.19928667 -1.169 5512986
-0.017813444 0.20262668 -1.169 6234383
-0.017813444 0.20708001 -1.169 7022892
-0.017813444 0.21153334 -1.169 7485738
-0.01002011 0.17702 -1.169 7480845
-0.013360111 0.18815334 -1.169 6890532
-0.013137444 0.19216132 -1.169 7481627
-0.014448683 0.19783239 -1.1670001 6762549
-0.014423921 0.20082383 -1.1650001 7156756
-0.00668011 0.17368001 -1.169 8535834
0.03883322 0.30290002 -1.1650001 6751745
0.03883322 0.30511907 -1.1650001 3542017
0.041052267 0.30511907 -1.1650001 2688513
0.047709413 0.29846191 -1.1650001 7687683
0.046599887 0.30179048 -1.1650001 4325636
0.052147508 0.29846191 -1.1650001 5906946
0.05325703 0.30068097 -1.1650001 1573121
0.058804654 0.29735237 -1.1650001 3474961
0.062133223 0.29402384 -1.1650001 5247769
0.062237985 0.29786286 -1.1670001 983303
0.062237982 0.30119717 -1.1670001 327937
0.069899887 0.28292859 -1.1650001 8866840
0.067680836 0.28847623 -1.1650001 7087439
0.067680836 0.29291433 -1.1650001 2818839
0.067237027 0.29713047 -1.1650001 393473
0.065461792 0.30068097 -1.1650001 196865
0.074337997 -0.043271426 -1.1650001 4918273
0.073683396 -0.037395872 -1.1663334 4394755
0.072696403 -0.032266982 -1.1683334 4131841
0.073108792 -0.010762219 -1.169 3541761
0.074593231 -0.0066799973 -1.169 3736577
0.074337982 0.27738094 -1.1650001 8012820
0.073768459 0.28283399 -1.1676668 8599819
0.072366551 0.28724 -1.1690001 9590317
0.072366551 0.29058 -1.169 9262684
0.078776091 -0.047709521 -1.1650002 4986370
0.077666566 -0.042161904 -1.1650001 4852997
0.077799901 -0.037786663 -1.1670001 4459779
0.076819882 0.27388 -1.169 8077084
0.076819882 0.27721998 -1.169 7750705
0.076819882 0.28278667 -1.169 8009242
0.077562109 0.28761113 -1.169 11370324
0.083214186 -0.052147619 -1.1650001 4786433
0.082152277 -0.047735553 -1.1656668 4918785
0.081922755 -0.042628255 -1.1676668 4852739
0.081273235 -0.038966663 -1.169 4655361
0.082247503 0.2634086 -1.1670001 7288094
0.08099512 0.26517621 -1.1650001 7354896
0.087652281 -0.056585714 -1.1650001 4591879
0.086439706 -0.052661523 -1.1666001 4723202
0.085726552 0.25384003 -1.169 6237713
0.093421809 -0.067237139 -1.1650001 4001285
0.093199901 -0.062133331 -1.1650001 4393223
0.09232752 -0.057842854 -1.1680001 4852483
0.098747537 -0.087652378 -1.1650002 3999233
0.098747522 -0.082104757 -1.1650001 4066049
0.09908656 -0.079046659 -1.169 4261891
0.096859895 -0.07125333 -1.169 4066306
0.096859895 -0.066799991 -1.169 4066050
0.10318562 -0.10651428 -1.1650001 3279119
0.10256403 -0.10182191 -1.1663334 3803139
0.10096657 -0.097638093 -1.1650001 4131108
0.10096657 -0.093199998 -1.1650001 3803406
0.10131324 -0.086839996 -1.169 4000001
0.10984276 -0.13314286 -1.1650001 3802884
0.10984276 -0.12648572 -1.1650001 3606785
0.1077161 -0.12215142 -1.1660001 3540481
0.10669895 -0.11781143 -1.1670001 3671557
0.1060499 -0.11271095 -1.1660001 3802637
0.11428086 -0.14090954 -1.1650001 4068123
0.11317134 -0.13758096 -1.1650001 3607574
0.11235039 -0.1329281 -1.1680001 4000775
0.11244657 -0.12691998 -1.169 4000003
0.11244657 -0.12357999 -1.169 4064776
0.1102199 -0.11467333 -1.169 4262146
0.11771134 -0.14214 -1.166 4530209
0.11801324 -0.13805333 -1.169 4590109
0.12204752 -0.14201906 -1.1650001 5254158
0.12167768 -0.13795081 -1.1650002 5451548
0.12537609 -0.14312857 -1.1650001 5516294
0.13277292 -0.16162066 -1.1650002 5385738
0.13359989 -0.15809335 -1.169 5450769
0.15422373 -0.18640001 -1.1650001 5451539
0.15422373 -0.18307143 -1.1650001 5647369
0.15866183 -0.19638573 -1.1650001 5912128
0.15671134 -0.19227335 -1.1670001 5452067
0.15671134 -0.18672192 -1.1670001 5582865
0.1575523 -0.18307143 -1.1650001 5778447
0.19037992 -0.2660867 -1.169 5581351
0.19037992 -0.26386002 -1.169 5647128
-0.090488672 -0.19550002 -1.1730001 5050647
-0.091233432 -0.1917762 -1.1730001 5049605
-0.091605812 -0.18768002 -1.1730001 4984584
-0.0919782 -0.18358383 -1.1730001 5115655
-0.093616679 -0.17717886 -1.1730002 5379354
-0.0938401 -0.17204 -1.1730001 5642526
-0.09421248 -0.16794382 -1.1730001 5708560
-0.0938401 -0.16310287 -1.1730001 5906961
-0.09272296 -0.15751716 -1.1730001 6234645
-0.09160582 -0.15193143 -1.1730001 6365746
-0.093169816 -0.14723945 -1.1730002 6105138
-0.093169816 -0.14321773 -1.1730002 6106159
-0.09272296 -0.13740858 -1.1730002 6498371
-0.090488672 -0.13182287 -1.1730001 6761789
-0.08602009 -0.43010002 -1.1730001 2557719
-0.08713723 -0.42786574 -1.1730001 2427434
-0.086020097 -0.38318002 -1.1730001 3215649
-0.086020097 -0.36307147 -1.1730001 4198707
-0.086020097 -0.35301715 -1.1730001 3549746
-0.086020097 -0.33179146 -1.1730001 4529953
-0.086020105 -0.20667145 -1.1730001 4983809
-0.086764872 -0.20294765 -1.1730001 4918533
-0.087137245 -0.1977343 -1.1730002 5049354
-0.087137245 -0.19326572 -1.1730001 5378058
-0.088254392 -0.18879716 -1.1730001 5114636
-0.087137245 -0.13182287 -1.1730001 6760994
-0.087137245 -0.12847143 -1.1730001 7024178
-0.081551515 -0.43680289 -1.1730001 1640720
-0.083041035 -0.43382382 -1.1730001 1968388
-0.08378581 -0.35190001 -1.1730001 3157540
-0.08378581 -0.34854859 -1.1730001 3417360
-0.08378581 -0.34296286 -1.1730001 4267551
-0.08378581 -0.33737719 -1.1730001 4465441
-0.08378581 -0.30162859 -1.1730001 4993315
-0.081551522 -0.2915743 -1.1730001 5122873
-0.081551522 -0.26364574 -1.1730001 4267820
-0.081551529 -0.25135717 -1.1730001 4665379
-0.081551529 -0.24688859 -1.1730001 4669463
-0.081551529 -0.24242002 -1.1730001 5259037
-0.081551529 -0.21225716 -1.1730001 4525839
-0.083041057 -0.20816097 -1.1730001 4658181
-0.083785817 -0.20332001 -1.1730001 4985091
-0.083785817 -0.19885144 -1.1730001 4984326
-0.083041057 -0.12698191 -1.1730001 6893358
-0.081551529 -0.12288573 -1.1730001 6828583
-0.081551529 -0.1173 -1.1730001 7156251
-0.081551529 -0.11171429 -1.1730001 7153449
-0.077827699 -0.44201624 -1.1730001 1573903
-0.079317227 -0.43792003 -1.1730001 983826
-0.079317227 -0.43456858 -1.1730001 1771019
-0.079317234 -0.28710574 -1.1730001 4532280
-0.079317234 -0.28152001 -1.1730001 4204340
-0.079317234 -0.27705145 -1.1730001 4335900
-0.079317234 -0.27258289 -1.1730001 4989988
-0.079317234 -0.2681143 -1.1730001 5253937
-0.079317234 -0.26476288 -1.1730001 4271157
-0.079317234 -0.25694287 -1.1730001 3153948
-0.079317242 -0.2368343 -1.1730001 6113583
-0.077082954 -0.23348287 -1.1730001 6309453
-0.078572482 -0.21709812 -1.1730001 4590099
-0.079317242 -0.11506572 -1.1730001 7351585
-0.079317242 -0.11171429 -1.1730001 7350821
-0.077827714 -0.10761811 -1.1730001 7286815
-0.077827714 -0.10314953 -1.1730001 6958622
-0.077082954 -0.098308578 -1.1730001 6824984
-0.077082954 -0.092722863 -1.1730001 6958617
-0.077082954 -0.087137148 -1.1730001 6890301
-0.077082962 -0.082668573 -1.1730001 6957132
-0.077082962 -0.078199998 -1.1730001 6827038
-0.070380092 -0.45691147 -1.1730001 2361859
-0.070380092 -0.45132574 -1.1730001 2820358
-0.070380092 -0.44574004 -1.1730001 3149574
-0.073172949 -0.44294718 -1.1730001 2689294
-0.074848674 -0.23124859 -1.1730001 6508366
-0.073731527 -0.22789717 -1.1730001 6902866
-0.073731534 -0.22231144 -1.1730002 6366225
-0.074848674 -0.098308578 -1.1730001 7089178
-0.074290104 -0.09328144 -1.1730001 7220252
-0.074848674 -0.087137148 -1.1730001 6432828
-0.074848682 -0.082668573 -1.1730001 6826821
-0.074103922 -0.077827618 -1.1730001 6827563
-0.072614394 -0.072614297 -1.1730002 7024669
-0.072055824 -0.067587152 -1.1730001 7024919
-0.070380114 -0.062560007 -1.1730001 7156772
-0.071124882 -0.058463816 -1.1730001 6894894
-0.070938684 -0.051947154 -1.1730001 6960178
-0.071497254 -0.046920005 -1.1730001 7025955
-0.070380114 -0.042451438 -1.1730001 6960152
-0.070380114 -0.037982862 -1.1730001 7158029
-0.065911517 -0.46138003 -1.1730001 3282181
-0.067401044 -0.45840096 -1.1730001 3085057
-0.068145804 -0.45244288 -1.1730001 3018756
-0.068145804 -0.44685718 -1.1730001 3346691
-0.068145826 -0.062560007 -1.1730001 7418123
-0.068145826 -0.058091436 -1.1730001 6958881
-0.067587256 -0.05194715 -1.1730001 7091505
-0.068145826 -0.042451438 -1.1730001 7091477
-0.068145826 -0.037982862 -1.1730001 7289611
-0.066805258 -0.032844007 -1.1730002 7550477
-0.065911539 -0.02569429 -1.1730001 8006964
-0.065911539 -0.022342863 -1.1730001 7877440
-0.065911539 -0.017874289 -1.1730001 7879204
-0.065911539 -0.012288576 -1.1730001 7813920
-0.063677229 -0.46361431 -1.1730001 3280390
-0.062932491 -0.030907623 -1.1730001 7550470
-0.062560111 -0.026811432 -1.1730001 7746334
-0.062560111 -0.022342861 -1.1730001 7681331
-0.063677251 -0.017874287 -1.1730001 7944238
-0.062560111 -0.010054289 -1.1730001 7943965
-0.063677251 -0.0067028599 -1.1730001 7682068
-0.056974374 -0.47702003 -1.1730001 5381147
-0.059208658 -0.47143432 -1.1730001 4198443
-0.058463916 -0.0018619075 -1.1730001 7419710
-0.058091536 0.0011171404 -1.1730001 7485481
-0.058091536 0.0055857124 -1.1730001 7747862
-0.054740109 -0.0011171454 -1.1730001 7616788
-0.053995349 0.0026066648 -1.1730001 7748122
-0.053995349 0.0070752357 -1.1730001 7813914
-0.053399537 0.011841713 -1.1730002 7683632
-0.053250588 0.017501904 -1.1730001 8077350
-0.051388681 0.022342857 -1.1730001 8273718
-0.050271537 0.026811428 -1.1730001 8602200
-0.050271537 0.030162858 -1.1730001 8996938
-0.04803725 0.023459999 -1.1730001 8273194
-0.046920106 0.026811428 -1.1730001 8340536
-0.046920106 0.03239714 -1.1730001 8735042
-0.045802962 0.04245143 -1.1730001 8670292
-0.043568682 0.037982855 -1.1730001 8669783
-0.043568682 0.04245143 -1.1730001 8735817
-0.043568686 0.046919998 -1.1730001 8735030
-0.042079162 0.051016197 -1.1730001 8603193
-0.041334398 0.056974292 -1.1730001 8538424
-0.038206398 0.052505713 -1.1730002 8668210
-0.03835535 0.058463812 -1.1730001 8603191
-0.03798297 0.062560007 -1.1730001 8472144
-0.036865827 0.065911435 -1.1730001 8275285
-0.034631539 0.062560007 -1.1730001 8274505
-0.032397252 0.066470005 -1.1730001 8274495
-0.022342965 0.092722863 -1.1730001 7025701
-0.021225827 0.18879716 -1.1730001 7684118
-0.021225829 0.19214858 -1.1730001 8076308
-0.021225829 0.19996858 -1.1730001 6691374
-0.021225829 0.20220287 -1.1730001 6361384
-0.018991536 0.098308578 -1.1730001 7156267
-0.017874395 0.17092286 -1.1730001 5246249
-0.017874395 0.17874287 -1.1730001 5904930
-0.017874395 0.18321145 -1.1730001 5905439
-0.017874395 0.18768002 -1.1730001 6166809
-0.018991541 0.19214858 -1.1730001 6566407
-0.017874397 0.19661716 -1.1730001 5775140
-0.010054396 0.16868858 -1.1730001 7878431
-0.012288682 0.17204002 -1.1730001 7151892
-0.012567967 0.17762572 -1.1730002 6560023
-0.013405826 0.18321145 -1.1730001 6099718
-0.013405826 0.18656288 -1.1730001 6430482
-0.014522969 0.19550002 -1.1730001 6688034
-0.006702967 0.17092286 -1.1730001 8338205
0.074848473 -0.030162856 -1.1730001 4066049
0.074848473 -0.012288569 -1.1730001 3737601
0.077082753 -0.033514284 -1.1730001 4001028
0.078199893 -0.011171426 -1.1730001 3606529
0.078199901 -0.0067028538 -1.1730001 3737601
0.079317026 0.2737 -1.1730001 8011040
0.079317026 0.27593431 -1.1730001 8208179
0.077082738 0.2804029 -1.1730001 7419166
0.083785616 -0.041334286 -1.1730001 4785409
0.082668468 -0.037982855 -1.1730001 4524290
0.083785601 0.2625286 -1.1730001 7155480
0.088254191 -0.050271429 -1.1730001 4854795
0.087137051 -0.046919998 -1.1730001 4984588
0.086019903 -0.043568574 -1.1730001 4918017
0.088254184 0.25359145 -1.1730001 6106648
0.094957046 -0.056974288 -1.1730001 5048577
0.090488471 -0.054740001 -1.1730001 4395778
0.099425621 -0.07708285 -1.1730001 4393219
0.099425621 -0.07373143 -1.1730001 4197123
0.099425621 -0.067028575 -1.1730001 4197378
0.097191334 -0.06367714 -1.1730001 4196866
0.1038942 -0.098308571 -1.1730001 3869203
0.10314944 -0.092722856 -1.1730001 3868678
0.10165991 -0.082668565 -1.1730001 3869443
0.10165991 -0.079317138 -1.1730001 4066054
0.10836276 -0.11283143 -1.1730001 4065287
0.10612848 -0.10724571 -1.1730001 3672849
0.11283134 -0.13070573 -1.1730001 3935491
0.11059705 -0.12176857 -1.1730001 3804673
0.11059705 -0.11841714 -1.1730001 4000001
0.11841705 -0.1351743 -1.1730001 5049623
0.11506563 -0.13182287 -1.1730001 4395012
0.11618277 -0.12735429 -1.1730001 4855556
0.12176848 -0.1351743 -1.1730001 5845017
0.12176848 -0.13294001 -1.1730001 5779219
0.15975136 -0.19550002 -1.1730001 5780559
0.1590066 -0.19252096 -1.1730001 5582873
0.15975136 -0.18768002 -1.1730001 5713935
0.16310278 -0.1977343 -1.1730001 6304816
0.1664542 -0.1977343 -1.1730001 5910300
-0.095281057 -0.19280382 -1.177 4853761
-0.096028358 -0.18794636 -1.177 4983812
-0.09724272 -0.18243502 -1.177 5182224
-0.098643906 -0.17711048 -1.177 5313064
-0.097522952 -0.17262667 -1.177 5574701
-0.097522952 -0.16814286 -1.177 5642249
-0.097522952 -0.16029619 -1.177 5906195
-0.096028358 -0.157307 -1.177 6102558
-0.095281057 -0.15244953 -1.177 6300976
-0.09827026 -0.14833938 -1.177 6104868
-0.098083429 -0.14180048 -1.177 6432290
-0.096775651 -0.13638255 -1.177 6760501
-0.096401997 -0.13227238 -1.177 6958130
-0.090797231 -0.43156669 -1.177 4994867
-0.091544531 -0.42783019 -1.177 5586723
-0.091918185 -0.42259905 -1.177 5519892
-0.091918193 -0.4169943 -1.177 5189135
-0.09303914 -0.41363144 -1.177 5977366
-0.0919182 -0.20625524 -1.177 4786450
-0.091918193 -0.20177144 -1.177 4852745
-0.092291854 -0.19766128 -1.177 4918539
-0.093039148 -0.19392475 -1.177 4853766
-0.093039148 -0.13227238 -1.177 6761784
-0.091918193 -0.12778857 -1.177 7023927
-0.091544546 -0.12293112 -1.177 7024666
-0.091694012 -0.11814839 -1.177 6827297
-0.086313419 -0.4360505 -1.177 2623489
-0.087808028 -0.4330613 -1.177 2821400
-0.086313426 -0.36655146 -1.177 3809104
-0.086313426 -0.36206764 -1.177 3872279
-0.086313426 -0.35870478 -1.177 3482651
-0.086313426 -0.35085809 -1.177 3745570
-0.086313426 -0.34749526 -1.177 3742738
-0.086313426 -0.34301144 -1.177 4397606
-0.086313426 -0.33740669 -1.177 4530465
-0.086313426 -0.31274575 -1.177 4469542
-0.086313426 -0.30826193 -1.177 5058856
-0.086313426 -0.30377811 -1.177 5124940
-0.086313426 -0.29817334 -1.177 4795420
-0.086313426 -0.2948105 -1.177 4729137
-0.086313426 -0.28248 -1.177 3215875
-0.086313426 -0.27799618 -1.177 2298128
-0.086313426 -0.27351239 -1.177 3875626
-0.086313434 -0.21634382 -1.177 4263430
-0.086313434 -0.21298096 -1.177 4460293
-0.087994866 -0.20793667 -1.177 4983047
-0.087434389 -0.12666762 -1.177 7220776
-0.087434389 -0.12330477 -1.177 6959640
-0.087434389 -0.11770001 -1.177 6828562
-0.087434389 -0.11209525 -1.177 6696250
-0.086313434 -0.10873239 -1.177 7021114
-0.081829607 -0.45174384 -1.177 1312303
-0.082726367 -0.44681168 -1.177 1180687
-0.082950555 -0.44165528 -1.177 1574936
-0.08407151 -0.43829241 -1.177 2035208
-0.084071517 -0.29817334 -1.177 5124130
-0.08351104 -0.29200813 -1.177 5254447
-0.082950562 -0.28696382 -1.177 5057592
-0.082950562 -0.28248 -1.177 3415592
-0.082950562 -0.27799618 -1.177 2034713
-0.08295057 -0.27239144 -1.177 3478060
-0.083324216 -0.26716033 -1.177 4004156
-0.082950562 -0.26230285 -1.177 4334115
-0.081829615 -0.25781906 -1.177 4006410
-0.081829622 -0.25445619 -1.177 4335910
-0.081829622 -0.24997239 -1.177 4666144
-0.081829622 -0.2376419 -1.177 6047006
-0.081829622 -0.23427905 -1.177 6442253
-0.081829622 -0.22643238 -1.177 3541505
-0.081829622 -0.22194858 -1.177 3869185
-0.08295057 -0.21746477 -1.177 4459781
-0.084071524 -0.21298096 -1.177 4394762
-0.084071524 -0.12330476 -1.177 6697759
-0.084071524 -0.1177 -1.177 6960403
-0.084071524 -0.11209524 -1.177 7088178
-0.082576923 -0.10798508 -1.177 7219484
-0.081829622 -0.10312762 -1.177 6892584
-0.08182963 -0.097522855 -1.177 6762005
-0.082576923 -0.091544449 -1.177 6695946
-0.08295057 -0.087434292 -1.177 6564124
-0.08182963 -0.082950473 -1.177 6826550
-0.08182963 -0.079587616 -1.177 6826545
-0.077345803 -0.45286477 -1.177 1443605
-0.077666067 -0.44790062 -1.177 1770764
-0.078840412 -0.23278445 -1.177 6639161
-0.078466766 -0.22755335 -1.177 5448204
-0.078466766 -0.22194858 -1.177 4000011
-0.079587713 -0.10649048 -1.177 7286038
-0.079587713 -0.10200667 -1.177 6761767
-0.07958772 -0.097522855 -1.177 6696469
-0.078840412 -0.092291757 -1.177 6892558
-0.079587713 -0.087434292 -1.177 7349294
-0.07958772 -0.082950473 -1.177 7088705
-0.07884042 -0.077345721 -1.177 6892841
-0.077794202 -0.071516767 -1.177 7024664
-0.077794202 -0.067032956 -1.177 6959399
-0.077345826 -0.062773339 -1.177 7156781
-0.077345826 -0.058289528 -1.177 7223592
-0.076705284 -0.052364495 -1.177 7287602
-0.077345818 -0.047080006 -1.177 7156515
-0.077345826 -0.042596195 -1.177 7156759
-0.07689745 -0.038336575 -1.177 7289883
-0.076224878 -0.032507624 -1.177 7618089
-0.075103916 -0.026902862 -1.177 7814713
-0.070620082 -0.46519524 -1.177 2034698
-0.07136739 -0.46145874 -1.177 1968898
-0.072114691 -0.45697495 -1.177 1902596
-0.072861992 -0.4528648 -1.177 2229514
-0.072114691 -0.44875464 -1.177 2689288
-0.072862014 -0.066136189 -1.177 7091239
-0.072862014 -0.062773332 -1.177 7156796
-0.072862014 -0.057168573 -1.177 7092013
-0.072862014 -0.05380572 -1.177 7091763
-0.072862014 -0.042596195 -1.177 6959642
-0.072862014 -0.038112387 -1.177 7223567
-0.071741059 -0.032507624 -1.177 7356701
-0.071741059 -0.026902862 -1.177 7224631
-0.071367413 -0.022792704 -1.177 7813190
-0.070620105 -0.017935243 -1.177 8010284
-0.070620105 -0.013451432 -1.177 7879723
-0.067257226 -0.46519524 -1.177 2821900
-0.06837818 -0.46295333 -1.177 2691336
-0.068378203 -0.030265719 -1.177 7485470
-0.067630902 -0.027276512 -1.177 7746350
-0.068378203 -0.022419052 -1.177 7812938
-0.068378203 -0.017935243 -1.177 7944731
-0.06837821 -0.012330479 -1.177 7749153
-0.066136293 -0.0067257173 -1.177 7617308
-0.061652463 -0.47192097 -1.177 3344674
-0.062773414 -0.4685581 -1.177 3148314
-0.061652485 -0.0022419076 -1.177 7616573
-0.061652485 0.0022419021 -1.177 7682603
-0.061652485 0.0067257117 -1.177 7814182
-0.059410561 -0.47640476 -1.177 4267560
-0.058289628 0.0033628547 -1.177 7682335
-0.058289628 0.0078466637 -1.177 7878696
-0.058065437 0.011882093 -1.177 7880245
-0.057915978 0.017561587 -1.177 8143157
-0.053805798 -0.48313048 -1.177 5190189
-0.054926775 0.014572378 -1.177 7881001
-0.054926775 0.01905619 -1.177 8208433
-0.053805821 0.022419047 -1.177 8340285
-0.052684866 0.026902856 -1.177 8799570
-0.051563911 0.032507617 -1.177 9062963
-0.048201058 0.034749519 -1.177 8932666
-0.04670646 0.037738729 -1.177 8801369
-0.048201058 0.041475236 -1.177 8670282
-0.04595916 0.047079999 -1.177 8668745
-0.04595916 0.051563807 -1.177 8471875
-0.042969953 0.054179367 -1.177 8471868
-0.042969953 0.058663171 -1.177 8472378
-0.041475348 0.062773332 -1.177 8537147
-0.041475348 0.066136189 -1.177 8536635
-0.038486142 0.067630798 -1.177 8472133
-0.03699154 0.07062 -1.177 8536645
-0.032507729 0.068378098 -1.177 8406073
-0.032059349 0.071516767 -1.177 8537912
-0.031386778 0.077345721 -1.177 8669249
-0.031386774 0.082950473 -1.177 8801333
-0.031386774 0.087434292 -1.177 8604205
-0.030265821 0.090797149 -1.177 8474151
-0.028023917 0.068378098 -1.177 7161644
-0.027276615 0.078840315 -1.177 7226436
-0.026902964 0.082950473 -1.177 7094577
-0.026902964 0.087434292 -1.177 7290923
-0.026529314 0.091544449 -1.177 7488297
-0.025782011 0.097522855 -1.177 7618357
-0.025782011 0.10312762 -1.177 7815199
-0.025782015 0.18944097 -1.177 8141095
-0.025782015 0.19168288 -1.177 8338986
-0.023540108 0.090797149 -1.177 7025960
-0.022419155 0.097522855 -1.177 7157548
-0.022419155 0.10200667 -1.177 7092251
-0.021298205 0.16926381 -1.177 5578773
-0.021298205 0.17262667 -1.177 5972768
-0.021298205 0.17711048 -1.177 6301475
-0.021858683 0.18215476 -1.177 6826536
-0.022419158 0.18832001 -1.177 7551003
-0.023540113 0.19280382 -1.177 8142113
-0.021298207 0.19728762 -1.177 7548715
-0.023540113 0.20289238 -1.177 7356496
-0.021298207 0.20625524 -1.177 6034474
-0.019056298 0.09528096 -1.177 6959643
-0.017935349 0.16478001 -1.177 4394246
-0.017935349 0.16814286 -1.177 4983312
-0.017935349 0.17374763 -1.177 5378599
-0.017935349 0.17598952 -1.177 5641766
-0.012330586 0.16388325 -1.177 6890258
-0.012778968 0.16791867 -1.177 7086874
-0.012330586 0.17262667 -1.177 7613716
-0.0078467764 0.16814286 -1.177 8008740
0.072861806 -0.028023807 -1.177 4392705
0.072861806 -0.022419045 -1.177 3802370
0.072861806 -0.017935235 -1.177 3868427
0.072861806 -0.014572378 -1.177 3934727
0.079027034 -0.03194714 -1.177 4000517
0.077345617 -0.028023809 -1.177 3999745
0.07678514 -0.021858569 -1.177 3671300
0.077345617 -0.017935235 -1.177 3934223
0.077345617 -0.014572377 -1.177 3868938
0.077345617 -0.0022419014 -1.177 3868420
0.077345617 0.014572385 -1.177 4196866
0.079587512 0.077345721 -1.177 4196866
0.079587512 0.084071428 -1.177 4065538
0.079587504 0.087434292 -1.177 4262151
0.079587504 0.091918096 -1.177 4263442
0.079587512 0.097522855 -1.177 4327685
0.079587497 0.27239144 -1.177 7814162
0.079587497 0.27911714 -1.177 8143687
0.079587497 0.28248 -1.177 8467491
0.079587497 0.28696382 -1.177 10389081
0.084071323 -0.036991429 -1.177 4393217
0.082950376 -0.032507617 -1.177 4196098
0.081829421 -0.028023807 -1.177 4195849
0.081829421 -0.017935235 -1.177 3606287
0.082726181 -0.011882092 -1.177 3606274
0.081829421 -0.0067257108 -1.177 3673345
0.081829421 0.079587616 -1.177 4459014
0.081829421 0.082950473 -1.177 4262149
0.081829414 0.087434292 -1.177 4393476
0.081829414 0.090797149 -1.177 4590349
0.084071316 0.1670219 -1.177 4460545
0.084071308 0.26118189 -1.177 6958610
0.084071308 0.26790762 -1.177 7288080
0.081829406 0.27127048 -1.177 7683082
0.081829406 0.28808478 -1.177 11568234
0.087807842 -0.042222537 -1.177 4787969
0.087060541 -0.03848603 -1.177 4459010
0.086313225 0.1670219 -1.177 4263169
0.087807827 0.25819272 -1.177 6434070
0.086313218 0.26230285 -1.177 6827550
0.086313218 0.26566571 -1.177 7090466
0.091917999 -0.052684758 -1.177 4657666
0.090797044 -0.047079999 -1.177 4985096
0.090797037 0.25445619 -1.177 6107157
0.09976466 -0.070619993 -1.177 4132357
0.099017359 -0.062399678 -1.177 4262401
0.09752275 -0.059410475 -1.177 4785921
0.095280856 -0.054926667 -1.177 4852481
0.10424848 -0.090797141 -1.177 4065537
0.10424848 -0.087434284 -1.177 4066049
0.10424847 -0.08407142 -1.177 3868163
0.10200656 -0.077345714 -1.177 4328197
0.10200656 -0.068378091 -1.177 4329221
0.10873229 -0.11097428 -1.177 4131073
0.10873229 -0.10649047 -1.177 4132621
0.10649038 -0.10312761 -1.177 3934471
0.10649038 -0.097522847 -1.177 4131075
0.10649038 -0.093039043 -1.177 4131073
0.1132161 -0.1221838 -1.177 4065029
0.11321611 -0.1177 -1.177 4327682
0.11097419 -0.11321619 -1.177 4392706
0.11882085 -0.13227238 -1.177 5117712
0.11994181 -0.12778857 -1.177 5449729
0.11713943 -0.12386523 -1.177 4921352
0.115458 -0.1177 -1.177 4921603
0.12218371 -0.13115142 -1.177 5713674
0.12218371 -0.12778857 -1.177 5778945
0.16365896 -0.19616666 -1.177 6042426
0.16365896 -0.19280382 -1.177 5777441
0.16365896 -0.18832001 -1.177 5712945
0.16702181 -0.19616666 -1.177 5843489
0.16702181 -0.19392475 -1.177 5842713
-0.10685249 -0.16084096 -1.1810001 5513734
